# .PCD v0.7 - Point Cloud Data file format
VERSION 0.7
FIELDS x y z intensity ring time
SIZE 4 4 4 4 2 4
TYPE F F F F U F
COUNT 1 1 1 1 1 1
WIDTH 1183
HEIGHT 1
VIEWPOINT 0 0 0 1 0 0 0
POINTS 1183
DATA ascii
-0.96544433 2.3972497 -0.2261014 0 5 0
-0.96737003 2.4020312 -0.13571024 0 6 0
-0.96852231 2.4048924 -0.045253828 0 7 0
-0.97003967 2.4086602 0.045324728 0 8 0
-0.97105145 2.4111724 0.1362267 0 9 0
-0.96865255 2.405216 0.22685274 0 10 0
-0.97482622 2.4205453 0.32040197 0 11 0
-0.97261047 2.4150436 0.41235918 0 12 0
-0.97201246 2.4135587 0.50576448 0 13 0
-0.98080736 2.4353969 0.60613871 0 14 0
-0.95601344 2.2791452 -0.66224366 0 0 0
-0.96181291 2.2929711 -0.57405835 0 1 0
-0.96117818 2.2914579 -0.48301157 0 2 0
-0.96329266 2.2964988 -0.39443198 0 3 0
-0.96558523 2.3019645 -0.30650371 0 4 0
-0.96662766 2.3044496 -0.21863133 0 5 0
-0.96487916 2.300281 -0.13072844 0 6 0
-0.96769989 2.3070056 -0.043668024 0 7 0
-0.96656758 2.3043063 0.043616928 0 8 0
-0.96815795 2.3080978 0.13117267 0 9 0
-0.97032607 2.3132668 0.21946783 0 10 0
-0.96710134 2.3055787 0.30698496 0 11 0
-0.97280836 2.3191843 0.3983283 0 12 0
-0.9754914 2.3255808 0.49020424 0 13 0
-0.97139955 2.3158257 0.57978016 0 14 0
-0.96102828 2.2021983 -0.64381647 0 0 0
-0.96551448 2.2124784 -0.55730939 0 1 0
-0.96535432 2.2121115 -0.46915081 0 2 0
-0.96269524 2.2060182 -0.38121924 0 3 0
-0.96700788 2.2159007 -0.29685697 0 4 0
-0.96792746 2.2180078 -0.21172301 0 5 0
-0.96518666 2.2117274 -0.12646797 0 6 0
-0.9737404 2.2313282 -0.042495031 0 7 0
-0.97124487 2.2256098 0.042386122 0 8 0
-0.97327316 2.2302575 0.12752755 0 9 0
-0.97352672 2.2308385 0.2129478 0 10 0
-0.97713774 2.2391133 0.29996669 0 11 0
-0.97450536 2.2330811 0.38589597 0 12 0
-0.97779268 2.2406142 0.47519574 0 13 0
-0.97749692 2.2399364 0.56422585 0 14 0
-0.96359956 2.1246121 -0.62510222 0 0 0
-0.96821183 2.1347816 -0.54117346 0 1 0
-0.96588463 2.1296506 -0.45454776 0 2 0
-0.95936495 2.1152754 -0.3678734 0 3 0
-0.96983057 2.1383507 -0.28829801 0 4 0
-0.96777648 2.1338217 -0.2049882 0 5 0
-0.96773708 2.1337349 -0.12278779 0 6 0
-0.97063744 2.1401298 -0.041018572 0 7 0
-0.96954864 2.1377292 0.040972561 0 8 0
-0.96751851 2.1332531 0.12276006 0 9 0
-0.96983725 2.1383655 0.2054247 0 10 0
-0.97700322 2.1541655 0.29043019 0 11 0
-0.97292906 2.1451826 0.37307462 0 12 0
-0.97319102 2.1457601 0.45798618 0 13 0
-0.9797895 2.1603091 0.54764473 0 14 0
-0.95819515 2.0347652 -0.60264105 0 0 0
-0.96507257 2.0493698 -0.52296948 0 1 0
-0.96321583 2.0454268 -0.43946892 0 2 0
-0.96164787 2.0420973 -0.35750398 0 3 0
-0.96727455 2.0540457 -0.27876985 0 4 0
-0.96378618 2.046638 -0.19791776 0 5 0
-0.9699536 2.0597348 -0.11931609 0 6 0
-0.96734178 2.0541885 -0.039632704 0 7 0
-0.97357661 2.0674284 0.039888151 0 8 0
-0.97120923 2.0624011 0.11947054 0 9 0
-0.96977741 2.0593605 0.19914809 0 10 0
-0.96944118 2.0586467 0.27939427 0 11 0
-0.97244978 2.0650356 0.36151972 0 12 0
-0.97652894 2.0736978 0.44554305 0 13 0
-0.97966123 2.0803492 0.53087503 0 14 0
-0.96394211 1.9731961 -0.58843207 0 0 0
-0.96951711 1.9846082 -0.50993228 0 1 0
-0.96608442 1.9775815 -0.42781922 0 2 0
-0.96510059 1.9755675 -0.34823951 0 3 0
-0.9709776 1.9875978 -0.27161011 0 4 0
-0.96703786 1.9795331 -0.19274725 0 5 0
-0.97490853 1.9956445 -0.11639989 0 6 0
-0.97247612 1.9906653 -0.03867171 0 7 0
-0.97659737 1.9991015 0.038835596 0 8 0
-0.97387654 1.9935321 0.11627668 0 9 0
-0.97341269 1.9925826 0.19401787 0 10 0
-0.97944325 2.0049272 0.2739782 0 11 0
-0.97926021 2.0045524 0.35334873 0 12 0
-0.98133475 2.0087988 0.43457264 0 13 0
-0.97976142 2.0055783 0.51532042 0 14 0
-0.96404564 1.9038275 -0.5718019 0 0 0
-0.96780396 1.9112495 -0.49459195 0 1 0
-0.96564758 1.9069911 -0.41549566 0 2 0
-0.96388197 1.9035044 -0.33793405 0 3 0
-0.97125804 1.9180709 -0.26398179 0 4 0
-0.9719727 1.9194822 -0.18823545 0 5 0
-0.97084224 1.9172498 -0.11262635 0 6 0
-0.96436924 1.9044666 -0.037261505 0 7 0
-0.96870619 1.9130313 0.037429076 0 8 0
-0.96981013 1.9152114 0.11250661 0 9 0
-0.97203618 1.9196075 0.18824774 0 10 0
-0.96886235 1.9133397 0.26333064 0 11 0
-0.98198283 1.9392505 0.34428012 0 12 0
-0.98244131 1.9401559 0.42272159 0 13 0
-0.97830766 1.9319927 0.49995983 0 14 0
-0.96248281 1.8350928 -0.55523866 0 0 0
-0.964279 1.8385174 -0.47929299 0 1 0
-0.97122329 1.8517576 -0.4064486 0 2 0
-0.96559906 1.8410343 -0.32926354 0 3 0
-0.97354978 1.8561934 -0.25735715 0 4 0
-0.97357285 1.8562373 -0.18338108 0 5 0
-0.97843629 1.8655101 -0.11039836 0 6 0
-0.97064155 1.8506484 -0.036476623 0 7 0
-0.97550607 1.8599232 0.036659434 0 8 0
-0.97758085 1.8638791 0.11030184 0 9 0
-0.97492009 1.858806 0.18363485 0 10 0
-0.9807899 1.8699975 0.25927106 0 11 0
-0.98838103 1.8844709 0.33703205 0 12 0
-0.9787029 1.8660184 0.40957877 0 13 0
-0.98193431 1.8721795 0.48806852 0 14 0
-0.96686262 1.7810001 -0.54300368 0 0 0
-0.97315484 1.7925906 -0.47090313 0 1 0
-0.97781968 1.8011835 -0.39837912 0 2 0
-0.96271038 1.7733514 -0.31959039 0 3 0
-0.96670449 1.7807089 -0.24878435 0 4 0
-0.9713285 1.7892264 -0.17811622 0 5 0
-0.97787964 1.801294 -0.10741545 0 6 0
-0.97895712 1.8032787 -0.035815474 0 7 0
-0.97958285 1.8044313 0.035838366 0 8 0
-0.98261732 1.8100209 0.10793585 0 9 0
-0.98550242 1.8153354 0.18071534 0 10 0
-0.98109823 1.8072226 0.25248861 0 11 0
-0.98181611 1.808545 0.32593292 0 12 0
-0.98249865 1.8098023 0.40028542 0 13 0
-0.98188621 1.8086741 0.47512817 0 14 0
-0.96852362 1.7247227 -0.53001773 0 0 0
-0.96807557 1.723925 -0.45645833 0 1 0
-0.96372104 1.7161705 -0.38258806 0 2 0
-0.96791863 1.7236454 -0.31309718 0 3 0
-0.97251958 1.7318387 -0.24387647 0 4 0
-0.97138923 1.7298259 -0.17356928 0 5 0
-0.97147411 1.729977 -0.10398119 0 6 0
-0.97459912 1.7355419 -0.034743637 0 7 0
-0.97422636 1.7348781 0.034730349 0 8 0
-0.97390193 1.7343004 0.10424105 0 9 0
-0.97784948 1.74133 0.1747236 0 10 0
-0.97623247 1.7384505 0.24480754 0 11 0
-0.97624648 1.7384756 0.31579104 0 12 0
-0.98392421 1.7521478 0.39060849 0 13 0
-0.97821927 1.7419887 0.46124119 0 14 0
-0.96797633 1.6673928 -0.51660478 0 0 0
-0.96914548 1.6694068 -0.4456504 0 1 0
-0.97566289 1.6806334 -0.37774026 0 2 0
-0.97487795 1.6792812 -0.3075417 0 3 0
-0.97005594 1.6709752 -0.23723666 0 4 0
-0.96832293 1.6679899 -0.16873813 0 5 0
-0.97010869 1.671066 -0.10126454 0 6 0
-0.97491974 1.6793532 -0.033894684 0 7 0
-0.98026532 1.6885613 0.034080531 0 8 0
-0.97739172 1.6836114 0.10202478 0 9 0
-0.98268551 1.6927302 0.17124093 0 10 0
-0.97508007 1.6796294 0.23846534 0 11 0
-0.97954577 1.6873219 0.30901423 0 12 0
-0.98654693 1.6993817 0.38195416 0 13 0
-0.98842776 1.7026216 0.45451716 0 14 0
-0.96447635 1.6079147 -0.50240248 0 0 0
-0.9673062 1.6126324 -0.43414602 0 1 0
-0.97038746 1.6177692 -0.36669517 0 2 0
-0.96673822 1.6116855 -0.29766595 0 3 0
-0.97605342 1.6272151 -0.23298346 0 4 0
-0.96866113 1.6148913 -0.16475227 0 5 0
-0.96881509 1.6151479 -0.098706193 0 6 0
-0.97700632 1.6288038 -0.033153288 0 7 0
-0.98299402 1.6387862 0.033356473 0 8 0
-0.9778859 1.6302702 0.099630363 0 9 0
-0.97596818 1.6270732 0.16599508 0 10 0
-0.98363465 1.6398542 0.2347931 0 11 0
-0.98446757 1.6412427 0.30312493 0 12 0
-0.98608977 1.6439471 0.37262884 0 13 0
-0.98059845 1.6347923 0.44011182 0 14 0
-0.97037566 1.56648 -0.49374524 0 0 0
-0.97114962 1.5677295 -0.42575607 0 1 0
-0.97529507 1.5744214 -0.359997 0 2 0
-0.97303277 1.5707694 -0.29265139 0 3 0
-0.97158831 1.5684377 -0.22653569 0 4 0
-0.97166735 1.5685652 -0.16142842 0 5 0
-0.97562408 1.5749526 -0.09709321 0 6 0
-0.97407532 1.5724524 -0.032286771 0 7 0
-0.98373085 1.5880394 0.032606814 0 8 0
-0.9761461 1.5757953 0.097145163 0 9 0
-0.97997147 1.5819706 0.16280803 0 10 0
-0.99048758 1.5989468 0.23094225 0 11 0
-0.98502511 1.5901288 0.29625821 0 12 0
-0.97820318 1.579116 0.36107042 0 13 0
-0.97847068 1.5795479 0.42896566 0 14 0
-0.97136831 1.5190786 -0.48313743 0 0 0
-0.97300458 1.5216376 -0.41697815 0 1 0
-0.96869463 1.5148973 -0.34952116 0 2 0
-0.9731583 1.5218779 -0.28610823 0 3 0
-0.98328787 1.537719 -0.22410873 0 4 0
-0.96726173 1.5126566 -0.15708333 0 5 0
-0.97845852 1.5301666 -0.095185876 0 6 0
-0.97191721 1.519937 -0.0314909 0 7 0
-0.9811272 1.5343401 0.031789314 0 8 0
-0.98361003 1.5382229 0.095687024 0 9 0
-0.9861148 1.54214 0.16014507 0 10 0
-0.97950757 1.5318072 0.22324714 0 11 0
-0.97658509 1.5272369 0.28711569 0 12 0
-0.98413467 1.5390434 0.3550922 0 13 0
-0.99166667 1.5508224 0.42497575 0 14 0
-0.97436088 1.4767561 -0.47406399 0 0 0
-0.97444844 1.4768889 -0.40849587 0 1 0
-0.97201449 1.4731998 -0.34307548 0 2 0
-0.97012663 1.4703386 -0.27900094 0 3 0
-0.97046363 1.4708494 -0.21636535 0 4 0
-0.97152418 1.4724568 -0.15433702 0 5 0
-0.98744851 1.4965919 -0.093966909 0 6 0
-0.97512555 1.477915 -0.030906279 0 7 0
-0.98403639 1.4914205 0.031188706 0 8 0
-0.98110104 1.4869716 0.093362875 0 9 0
-0.98182786 1.4880731 0.15597387 0 10 0
-0.9828642 1.4896439 0.21913008 0 11 0
-0.97707886 1.4808755 0.28100032 0 12 0
-0.99192458 1.5033759 0.35010281 0 13 0
-0.98498201 1.4928536 0.41291162 0 14 0
-0.96755368 1.4217471 -0.46080372 0 0 0
-0.96840775 1.423002 -0.39738441 0 1 0
-0.97511518 1.4328581 -0.33689663 0 2 0
-0.97950035 1.4393017 -0.27574369 0 3 0
-0.97540766 1.4332879 -0.21287192 0 4 0
-0.98247486 1.4436727 -0.15277831 0 5 0
-0.97115171 1.427034 -0.090463072 0 6 0
-0.97103107 1.4268569 -0.030126112 0 7 0
-0.97914213 1.4387753 0.030377755 0 8 0
-0.9849686 1.4473369 0.091750115 0 9 0
-0.98056436 1.4408653 0.15248123 0 10 0
-0.98350942 1.4451928 0.21464005 0 11 0
-0.98795432 1.4517242 0.27812359 0 12 0
-0.98300338 1.4444492 0.33962196 0 13 0
-0.98417366 1.4461689 0.40385392 0 14 0
-0.97102988 1.3838503 -0.45297933 0 0 0
-0.97274834 1.3862994 -0.39098307 0 1 0
-0.96742177 1.3787082 -0.32738703 0 2 0
-0.97178733 1.3849298 -0.26796442 0 3 0
-0.98174357 1.3991188 -0.20986268 0 4 0
-0.97723567 1.3926945 -0.1488485 0 5 0
-0.97128499 1.3842139 -0.088620827 0 6 0
-0.98388541 1.4021713 -0.029899186 0 7 0
-0.98460597 1.4031981 0.029921083 0 8 0
-0.98112881 1.3982427 0.089518987 0 9 0
-0.98317349 1.4011567 0.14975293 0 10 0
-0.99599665 1.4194313 0.21290947 0 11 0
-0.9869166 1.4064912 0.27213621 0 12 0
-0.98769283 1.4075973 0.33424702 0 13 0
-0.98637098 1.4057136 0.39645851 0 14 0
-0.96969777 1.3407233 -0.4433603 0 0 0
-0.97367322 1.3462198 -0.38357058 0 1 0
-0.98370123 1.3600848 -0.32627475 0 2 0
-0.97163028 1.3433952 -0.26259202 0 3 0
-0.97916144 1.3538079 -0.20514742 0 4 0
-0.97689211 1.3506702 -0.14583655 0 5 0
-0.98370028 1.3600833 -0.087968372 0 6 0
-0.98457897 1.3612983 -0.029325135 0 7 0
-0.98241961 1.3583127 0.02926082 0 8 0
-0.99327052 1.3733155 0.088824198 0 9 0
-0.98234558 1.3582103 0.14665067 0 10 0
-0.98944592 1.3680274 0.20730215 0 11 0
-0.98168427 1.3572961 0.26530921 0 12 0
-0.98903298 1.3674566 0.32804319 0 13 0
-0.99561453 1.3765563 0.39221418 0 14 0
-0.96824849 1.2991502 -0.43415114 0 0 0
-0.97279948 1.3052565 -0.37582797 0 1 0
-0.97317934 1.3057662 -0.31655329 0 2 0
-0.97680449 1.3106302 -0.25889391 0 3 0
-0.97205991 1.3042642 -0.19972777 0 4 0
-0.97854888 1.3129708 -0.14326364 0 5 0
-0.96765524 1.2983541 -0.084862947 0 6 0
-0.98055351 1.3156605 -0.028641414 0 7 0
-0.98769987 1.3252492 0.028850155 0 8 0
-0.97804636 1.3122965 0.085774243 0 9 0
-0.98364282 1.3198056 0.14400943 0 10 0
-0.98225355 1.3179415 0.20182225 0 11 0
-0.99075902 1.3293538 0.26259246 0 12 0
-0.98068404 1.3158357 0.3189944 0 13 0
-0.98240793 1.3181486 0.37954006 0 14 0
-0.97801322 1.27379 -0.43031028 0 0 0
-0.98648107 1.2848188 -0.37397057 0 1 0
-0.97524476 1.2701843 -0.31127948 0 2 0
-0.9768917 1.2723293 -0.2540642 0 3 0
-0.98104858 1.2777433 -0.19779661 0 4 0
-0.98607087 1.2842845 -0.14165911 0 5 0
-0.98716789 1.2857132 -0.084951557 0 6 0
-0.98803598 1.2868439 -0.028319059 0 7 0
-0.98263991 1.2798159 0.028164396 0 8 0
-0.98666978 1.2850645 0.084908694 0 9 0
-0.99269927 1.2929175 0.14261134 0 10 0
-0.9948827 1.2957612 0.20058581 0 11 0
-0.98727238 1.2858493 0.25676396 0 12 0
-1.0012696 1.3040797 0.3195861 0 13 0
-0.9873082 1.2858961 0.37428412 0 14 0
-0.97898149 1.2379602 -0.42289671 0 0 0
-0.96963829 1.2261454 -0.36089531 0 1 0
-0.96479416 1.2200197 -0.30233911 0 2 0
-0.97877681 1.2377014 -0.24992147 0 3 0
-0.98575276 1.2465227 -0.1951278 0 4 0
-0.97899592 1.2379785 -0.13808295 0 5 0
-0.98212337 1.2419332 -0.082979195 0 6 0
-0.9786855 1.2375859 -0.027540512 0 7 0
-0.98575449 1.2465249 0.027739435 0 8 0
-0.99120337 1.2534152 0.083746359 0 9 0
-0.98750609 1.2487398 0.13928327 0 10 0
-0.98134476 1.2409486 0.19425525 0 11 0
-0.99933326 1.2636957 0.25517038 0 12 0
-0.99085361 1.252973 0.31050539 0 13 0
-0.98940837 1.2511454 0.36825365 0 14 0
-0.96819472 1.1889418 -0.41084367 0 0 0
-0.9783709 1.2014382 -0.35770836 0 1 0
-0.9758113 1.198295 -0.30038592 0 2 0
-0.97852206 1.2016238 -0.24543957 0 3 0
-0.97714961 1.1999385 -0.19000556 0 4 0
-0.97571182 1.1981729 -0.13518697 0 5 0
-0.98066461 1.2042549 -0.081391253 0 6 0
-0.97449327 1.1966765 -0.026937777 0 7 0
-0.98296982 1.2070857 0.027172094 0 8 0
-0.97920322 1.2024603 0.081269965 0 9 0
-0.98546356 1.210148 0.13653809 0 10 0
-0.98550165 1.2101948 0.1916296 0 11 0
-0.99383038 1.2204224 0.24927931 0 12 0
-0.98760223 1.2127743 0.30401555 0 13 0
-0.98105687 1.2047366 0.35869038 0 14 0
-0.97359878 1.1612316 -0.40604219 0 0 0
-0.96721977 1.1536232 -0.34755853 0 1 0
-0.98247826 1.1718224 -0.29724455 0 2 0
-0.98291957 1.1723487 -0.24230881 0 3 0
-0.98464334 1.1744047 -0.18817478 0 4 0
-0.97894686 1.1676104 -0.13330598 0 5 0
-0.9894945 1.1801908 -0.080713809 0 6 0
-0.98084337 1.1698724 -0.026647707 0 7 0
-0.97852004 1.1671013 0.026584586 0 8 0
-0.98162133 1.1708003 0.080071591 0 9 0
-0.99820042 1.1905745 0.13592778 0 10 0
-0.99569577 1.1875871 0.19028701 0 11 0
-0.98730779 1.1775826 0.24339059 0 12 0
-0.98838246 1.1788645 0.29903084 0 13 0
-0.9934575 1.1849176 0.35698673 0 14 0
-0.98292017 1.1388383 -0.40309015 0 0 0
-0.98127192 1.1369286 -0.34672484 0 1 0
-0.98421264 1.1403358 -0.29280111 0 2 0
-0.98121554 1.1368632 -0.23785289 0 3 0
-0.97126573 1.1253351 -0.18252121 0 4 0
-0.9862861 1.1427381 -0.13206454 0 5 0
-0.98286808 1.1387779 -0.078835621 0 6 0
-0.98451632 1.1406876 -0.02630122 0 7 0
-0.98659599 1.1430972 0.026356779 0 8 0
-0.99348617 1.1510803 0.07968729 0 9 0
-0.98736984 1.1439937 0.13220964 0 10 0
-0.98994923 1.1469823 0.18603222 0 11 0
-0.98817182 1.144923 0.23953913 0 12 0
-0.99653614 1.1546141 0.2964673 0 13 0
-0.98256165 1.1384228 0.34718058 0 14 0
-0.9760316 1.0986663 -0.39377579 0 0 0
-0.97909582 1.1021155 -0.34034705 0 1 0
-0.98164088 1.1049805 -0.28730133 0 2 0
-0.97019136 1.0920923 -0.23136766 0 3 0
-0.97679043 1.0995206 -0.18058343 0 4 0
-0.98169738 1.105044 -0.12931894 0 5 0
-0.98964167 1.1139865 -0.078091986 0 6 0
-0.97635502 1.0990304 -0.025660314 0 7 0
-0.98519802 1.1089845 0.025892723 0 8 0
-0.99189049 1.1165178 0.078269437 0 9 0
-0.98560768 1.1094457 0.12983406 0 10 0
-0.99581957 1.1209406 0.18410143 0 11 0
-0.98357403 1.1071565 0.2345591 0 12 0
-0.99262518 1.1173449 0.29051614 0 13 0
-1.0001512 1.1258163 0.34766617 0 14 0
-0.97944504 1.0712298 -0.38892707 0 0 0
-0.97483003 1.0661824 -0.33352521 0 1 0
-0.9714942 1.062534 -0.27985182 0 2 0
-0.97425222 1.0655504 -0.22867547 0 3 0
-0.98690128 1.0793848 -0.17957801 0 4 0
-0.98348761 1.0756513 -0.12751356 0 5 0
-0.97824126 1.0699133 -0.075976171 0 6 0
-0.97150159 1.062542 -0.025130473 0 7 0
-0.98687536 1.0793566 0.025528157 0 8 0
-0.98592418 1.0783162 0.07657288 0 9 0
-0.98988146 1.0826443 0.12834255 0 10 0
-0.99497402 1.0882142 0.18104695 0 11 0
-0.99111134 1.0839894 0.23263262 0 12 0
-0.99290085 1.0859467 0.28601828 0 13 0
-0.99195945 1.0849171 0.33938581 0 14 0
-0.97987193 1.041369 -0.38313851 0 0 0
-0.97987849 1.041376 -0.33011886 0 1 0
-0.97811413 1.0395008 -0.2774443 0 2 0
-0.98149592 1.0430949 -0.22684805 0 3 0
-0.97898668 1.0404282 -0.17541011 0 4 0
-0.98423535 1.0460063 -0.12565646 0 5 0
-0.98404372 1.0458026 -0.075256534 0 6 0
-0.98424178 1.0460131 -0.025070172 0 7 0
-0.99255705 1.0548502 0.025281975 0 8 0
-0.99193692 1.0541912 0.07586018 0 9 0
-0.98459822 1.046392 0.12570278 0 10 0
-0.98852056 1.0505604 0.17711833 0 11 0
-0.98669308 1.0486182 0.22804925 0 12 0
-0.98847359 1.0505105 0.28038281 0 13 0
-0.99796975 1.0606027 0.33621377 0 14 0
-0.9788785 1.0109241 -0.37705362 0 0 0
-0.97590292 1.0078511 -0.32388631 0 1 0
-0.9791072 1.0111603 -0.27359262 0 2 0
-0.97855091 1.0105858 -0.22280134 0 3 0
-0.98034263 1.0124362 -0.17303881 0 4 0
-0.97916138 1.0112163 -0.12314816 0 5 0
-0.99404073 1.0265827 -0.074889652 0 6 0
-0.97898978 1.011039 -0.024565268 0 7 0
-0.98526496 1.0175197 0.024722727 0 8 0
-0.983217 1.0154047 0.074074209 0 9 0
-0.98270792 1.0148789 0.12359421 0 10 0
-0.99460006 1.0271604 0.17555536 0 11 0
-1.0023088 1.0351216 0.22821067 0 12 0
-0.98769295 1.0200272 0.27599174 0 13 0
-0.99960256 1.0323266 0.33175182 0 14 0
-0.98140532 0.98492712 -0.37255844 0 0 0
-0.98133665 0.98485821 -0.32097831 0 1 0
-0.97175491 0.97524208 -0.26761013 0 2 0
-0.98174459 0.98526764 -0.22029498 0 3 0
-0.97030175 0.97378373 -0.16878901 0 4 0
-0.97333199 0.97682482 -0.12064417 0 5 0
-0.98280865 0.98633552 -0.07297235 0 6 0
-0.99181503 0.9953742 -0.024527075 0 7 0
-0.98674685 0.99028784 0.024401741 0 8 0
-0.99505019 0.99862099 0.073881269 0 9 0
-0.98436612 0.98789859 0.12201186 0 10 0
-0.99308032 0.99664402 0.17275146 0 11 0
-0.98944771 0.99299836 0.2220235 0 12 0
-1.0029606 1.0065597 0.27620384 0 13 0
-0.99352235 0.9970876 0.32496405 0 14 0
-0.97653723 0.95238316 -0.3654981 0 0 0
-0.98066574 0.95640951 -0.31624886 0 1 0
-0.98606753 0.96167773 -0.26773357 0 2 0
-0.98677802 0.96237063 -0.21831113 0 3 0
-0.98155171 0.9572736 -0.16834524 0 4 0
-0.98676682 0.96235967 -0.1205897 0 5 0
-0.98336875 0.95904565 -0.071987331 0 6 0
-0.97872478 0.95451659 -0.023863051 0 7 0
-0.99175566 0.96722513 0.024180766 0 8 0
-0.9863081 0.96191233 0.072202504 0 9 0
-0.98516983 0.9608022 0.12039454 0 10 0
-0.99422568 0.96963406 0.17051893 0 11 0
-0.9948712 0.9702636 0.22010162 0 12 0
-0.99717939 0.97251469 0.27075061 0 13 0
-1.0052286 0.98036492 0.32417002 0 14 0
-0.98495382 0.9334628 -0.36361024 0 0 0
-0.98235738 0.93100214 -0.31246501 0 1 0
-0.98972857 0.93798798 -0.26505509 0 2 0
-0.99084735 0.93904823 -0.21621561 0 3 0
-0.97867012 0.92750764 -0.16555713 0 4 0
-0.97878385 0.9276154 -0.11797945 0 5 0
-0.98467368 0.93319732 -0.071097754 0 6 0
-0.9847362 0.93325663 -0.023681499 0 7 0
-0.99598759 0.94391984 0.023952078 0 8 0
-0.99010599 0.93834567 0.07148999 0 9 0
-0.9949156 0.94290382 0.11992392 0 10 0
-0.99402499 0.94205981 0.16815464 0 11 0
-0.98388165 0.93244672 0.21469562 0 12 0
-0.99173415 0.93988872 0.26559222 0 13 0
-0.98635328 0.93478912 0.31373602 0 14 0
-0.97557539 0.89842355 -0.35536435 0 0 0
-0.98529249 0.90737218 -0.30923584 0 1 0
-0.98027861 0.90275484 -0.25903735 0 2 0
-0.99134493 0.91294593 -0.21345085 0 3 0
-0.98583704 0.90787369 -0.1645544 0 4 0
-0.98732281 0.90924191 -0.11742797 0 5 0
-0.98911399 0.91089147 -0.070469745 0 6 0
-0.98463798 0.90676945 -0.023364617 0 7 0
-0.98831904 0.91015941 0.023451965 0 8 0
-0.98747069 0.90937811 0.070352666 0 9 0
-0.98576933 0.90781134 0.11724321 0 10 0
-0.99489087 0.91621149 0.16606565 0 11 0
-0.98934948 0.91110831 0.2130212 0 12 0
-0.99657297 0.91776055 0.2633431 0 13 0
-0.99501121 0.91632235 0.31228611 0 14 0
-0.97915936 0.87615985 -0.35206565 0 0 0
-0.98586309 0.88215834 -0.30542073 0 1 0
-0.9783535 0.87543875 -0.25519133 0 2 0
-0.97926325 0.87625277 -0.20812765 0 3 0
-0.97436941 0.87187374 -0.16054073 0 4 0
-0.9880774 0.88413972 -0.11600069 0 5 0
-0.98475748 0.88116908 -0.069253683 0 6 0
-0.98629159 0.88254178 -0.023101736 0 7 0
-0.98962915 0.88552827 0.023179913 0 8 0
-0.99460578 0.88998139 0.069946267 0 9 0
-0.99806023 0.89307249 0.11717268 0 10 0
-0.9864049 0.88264322 0.16252375 0 11 0
-0.98607033 0.88234383 0.2095744 0 12 0
-1.0070571 0.90112287 0.26267827 0 13 0
-1.0003721 0.89514107 0.3099156 0 14 0
-0.97994649 0.85192639 -0.34792852 0 0 0
-0.99025011 0.86088395 -0.30293137 0 1 0
-0.97267449 0.84560442 -0.25052729 0 2 0
-0.98603857 0.85722262 -0.20693868 0 3 0
-0.98232281 0.85399228 -0.1598208 0 4 0
-0.98029304 0.85222769 -0.11364307 0 5 0
-0.98767877 0.85864854 -0.06858778 0 6 0
-0.98465371 0.85601866 -0.02277405 0 7 0
-0.98352128 0.85503417 0.022747857 0 8 0
-0.98160315 0.85336667 0.068165869 0 9 0
-0.98969167 0.86039847 0.11473264 0 10 0
-0.99751306 0.86719811 0.1622922 0 11 0
-0.99691713 0.86668003 0.20922175 0 12 0
-0.99737996 0.86708242 0.25689057 0 13 0
-0.99897951 0.86847299 0.30560184 0 14 0
-0.97489887 0.82333881 -0.34191719 0 0 0
-0.98448342 0.8314333 -0.2974962 0 1 0
-0.97853678 0.82641113 -0.24896502 0 2 0
-0.99242651 0.83814156 -0.20574051 0 3 0
-0.98548919 0.83228272 -0.15838155 0 4 0
-0.97975498 0.82743996 -0.11219621 0 5 0
-0.99084038 0.83680195 -0.067968607 0 6 0
-0.98776084 0.83420116 -0.022567436 0 7 0
-0.98514438 0.83199149 0.022507656 0 8 0
-0.98768264 0.83413512 0.067751996 0 9 0
-0.99307132 0.83868611 0.11372113 0 10 0
-0.99286431 0.83851129 0.15956682 0 11 0
-0.99444175 0.83984345 0.20615828 0 12 0
-0.98752695 0.83400369 0.25125235 0 13 0
-1.0034229 0.84742838 0.30321944 0 14 0
-0.97942692 0.80343181 -0.33943725 0 0 0
-0.9841938 0.80734211 -0.29388657 0 1 0
-0.99619144 0.81718385 -0.25045523 0 2 0
-0.97952378 0.80351126 -0.20066079 0 3 0
-0.98396116 0.80715132 -0.15626322 0 4 0
-0.97938567 0.80339795 -0.11082572 0 5 0
-0.98352152 0.80679065 -0.066667572 0 6 0
-0.98228079 0.80577284 -0.022176456 0 7 0
-1.0021261 0.82205206 0.022624493 0 8 0
-0.98690128 0.8095631 0.06689667 0 9 0
-0.9866457 0.80935341 0.11164726 0 10 0
-0.9868651 0.80953342 0.15672439 0 11 0
-0.99796832 0.81864148 0.20443925 0 12 0
-1.0037376 0.82337397 0.25235242 0 13 0
-1.0044644 0.8239702 0.29993948 0 14 0
-0.99530482 0.7929005 -0.34097183 0 0 0
-0.97086126 0.77342778 -0.28657034 0 1 0
-0.98112035 0.78160059 -0.24382852 0 2 0
-0.98381793 0.78374958 -0.19922197 0 3 0
-0.98010403 0.78079093 -0.15386006 0 4 0
-0.98804706 0.78711873 -0.11051963 0 5 0
-0.98641837 0.7858212 -0.066094741 0 6 0
-0.98366022 0.78362399 -0.021952124 0 7 0
-0.98867065 0.78761548 0.022063941 0 8 0
-0.98220634 0.78246576 0.065812513 0 9 0
-1.0042753 0.8000468 0.11233486 0 10 0
-0.99274343 0.79086 0.15584424 0 11 0
-0.99577248 0.79327309 0.20164275 0 12 0
-1.0024259 0.79857343 0.24912338 0 13 0
-0.99996132 0.79661006 0.29515985 0 14 0
-0.98725688 0.76365048 -0.33443594 0 0 0
-0.98028719 0.75825936 -0.2861197 0 1 0
-0.97513229 0.75427204 -0.23963274 0 2 0
-0.985726 0.76246631 -0.19737814 0 3 0
-0.98515779 0.76202685 -0.15292551 0 4 0
-0.97733241 0.75597382 -0.10809968 0 5 0
-0.99453485 0.76928002 -0.065894037 0 6 0
-0.99394572 0.76882434 -0.021933831 0 7 0
-0.98372513 0.76091868 0.021708289 0 8 0
-0.99354041 0.76851088 0.065828152 0 9 0
-0.99504536 0.76967496 0.11005887 0 10 0
-0.99521124 0.76980323 0.15448609 0 11 0
-0.98542285 0.76223183 0.19731745 0 12 0
-0.99193799 0.76727134 0.24376263 0 13 0
-0.99271005 0.76786858 0.2897456 0 14 0
-0.9809469 0.73657387 -0.3286933 0 0 0
-0.97737521 0.73389196 -0.28217489 0 1 0
-0.97015142 0.72846776 -0.23582222 0 2 0
-0.98314488 0.73822433 -0.19472556 0 3 0
-0.98673862 0.74092281 -0.15150914 0 4 0
-0.98446244 0.73921365 -0.10770699 0 5 0
-0.97927839 0.73532104 -0.064179286 0 6 0
-0.99292094 0.74556494 -0.021673502 0 7 0
-0.99630785 0.74810809 0.021747431 0 8 0
-0.99505472 0.74716717 0.065213218 0 9 0
-0.99417943 0.74650991 0.10877009 0 10 0
-1.0011338 0.75173187 0.15371946 0 11 0
-0.99444526 0.74670959 0.19696377 0 12 0
-0.98919415 0.74276662 0.24045108 0 13 0
-0.99964195 0.75061166 0.28860343 0 14 0
-0.9589678 0.69883323 -0.31794438 0 0 0
-0.98216444 0.7157374 -0.2805711 0 1 0
-0.98766541 0.71974617 -0.23755094 0 2 0
-0.98322976 0.71651375 -0.19269134 0 3 0
-0.9874348 0.71957809 -0.1500192 0 4 0
-0.9792273 0.71359706 -0.10600588 0 5 0
-0.98533577 0.71804851 -0.063896149 0 6 0
-0.98662567 0.71898848 -0.02130927 0 7 0
-0.98801786 0.72000301 0.021339338 0 8 0
-0.99166006 0.7226572 0.064306259 0 9 0
-0.98584998 0.71842319 0.10672282 0 10 0
-0.99182731 0.7227791 0.15068655 0 11 0
-0.99968868 0.72850794 0.19591692 0 12 0
-0.99753296 0.726937 0.23992427 0 13 0
-1.003948 0.73161185 0.28679392 0 14 0
-0.97906351 0.69224328 -0.32128903 0 0 0
-0.98076361 0.69344532 -0.27730712 0 1 0
-0.98954034 0.69965088 -0.23556913 0 2 0
-0.97919047 0.69233304 -0.18993819 0 3 0
-0.98805588 0.69860131 -0.14857915 0 4 0
-0.9893952 0.6995483 -0.1060118 0 5 0
-0.9836911 0.69551522 -0.063137464 0 6 0
-0.98695034 0.69781959 -0.021098392 0 7 0
-0.99071932 0.70048445 0.021178965 0 8 0
-0.98982102 0.69984937 0.063530907 0 9 0
-0.98063362 0.69335341 0.10507301 0 10 0
-1.0088462 0.71330094 0.15170549 0 11 0
-0.97984546 0.69279611 0.19006523 0 12 0
-1.0022619 0.70864558 0.23859759 0 13 0
-1.0065644 0.71168762 0.2846022 0 14 0
-0.98565656 0.67595583 -0.32024476 0 0 0
-0.98875153 0.67807835 -0.27679309 0 1 0
-0.98569018 0.6759789 -0.23232539 0 2 0
-0.97568309 0.66911614 -0.18738088 0 3 0
-0.99125952 0.67979836 -0.14758259 0 4 0
-0.98232788 0.67367309 -0.10421069 0 5 0
-0.98411512 0.67489874 -0.062538244 0 6 0
-0.99294132 0.68095165 -0.021015951 0 7 0
-0.99311781 0.68107271 0.021019688 0 8 0
-0.99602634 0.68306738 0.063295171 0 9 0
-0.99038088 0.67919576 0.105065 0 10 0
-0.98478484 0.67535806 0.14661862 0 11 0
-0.99810004 0.68448949 0.19168608 0 12 0
-1.0012971 0.68668205 0.23600394 0 13 0
-1.0109227 0.69328314 0.28299972 0 14 0
-0.99538577 0.66188353 -0.32029492 0 0 0
-0.97409201 0.64772421 -0.27006623 0 1 0
-0.99441975 0.66124117 -0.23212835 0 2 0
-0.98721623 0.65645123 -0.18777208 0 3 0
-0.97624058 0.64915293 -0.14394839 0 4 0
-0.99565548 0.66206294 -0.10460853 0 5 0
-0.99005318 0.65833765 -0.062310394 0 6 0
-0.99614775 0.66239023 -0.020881006 0 7 0
-1.0040704 0.66765839 0.021047078 0 8 0
-0.9879244 0.6569221 0.062176418 0 9 0
-0.99828714 0.66381282 0.10488502 0 10 0
-1.0005989 0.66535002 0.14754006 0 11 0
-1.0052029 0.66841149 0.19119321 0 12 0
-0.99523365 0.66178244 0.23231836 0 13 0
-0.99761248 0.66336423 0.27658728 0 14 0
-0.99190092 0.63928425 -0.3161968 0 0 0
-0.97633278 0.62925047 -0.26816291 0 1 0
-0.97982603 0.63150191 -0.22658855 0 2 0
-0.97520363 0.62852275 -0.18375728 0 3 0
-0.98098105 0.63224632 -0.14329833 0 4 0
-0.98805642 0.63680643 -0.10284194 0 5 0
-0.99890602 0.64379901 -0.062281221 0 6 0
-0.98960084 0.63780183 -0.020550305 0 7 0
-0.9952051 0.64141381 0.020666685 0 8 0
-0.98686463 0.6360383 0.061530448 0 9 0
-0.99027669 0.63823742 0.10307304 0 10 0
-0.99182111 0.63923281 0.1448818 0 11 0
-1.0047319 0.64755386 0.18932128 0 12 0
-0.99545413 0.64157432 0.23020262 0 13 0
-1.0002595 0.64467132 0.27473468 0 14 0
-0.96990246 0.60563642 -0.30638936 0 0 0
-0.97358334 0.60793489 -0.26499057 0 1 0
-0.98735929 0.61653697 -0.22626671 0 2 0
-0.98715895 0.61641192 -0.18432863 0 3 0
-0.98018783 0.61205894 -0.14188819 0 4 0
-0.98304814 0.61384499 -0.10139575 0 5 0
-1.000244 0.62458259 -0.061800916 0 6 0
-0.98853338 0.61727011 -0.020342577 0 7 0
-0.99740851 0.62281203 0.020525215 0 8 0
-1.0022897 0.62585992 0.061927304 0 9 0
-1.0019068 0.62562084 0.10334091 0 10 0
-1.0056601 0.62796456 0.14557545 0 11 0
-0.99925542 0.62396526 0.18658735 0 12 0
-0.99739283 0.62280226 0.22856602 0 13 0
-1.005013 0.62756044 0.27354509 0 14 0
-0.98126054 0.59338003 -0.30726284 0 0 0
-0.98618501 0.59635794 -0.26606992 0 1 0
-0.97540045 0.58983636 -0.22156875 0 2 0
-0.99770695 0.60332537 -0.18466678 0 3 0
-0.98450065 0.59533936 -0.14126451 0 4 0
-0.98310906 0.59449786 -0.10051405 0 5 0
-1.0057421 0.60818428 -0.061596446 0 6 0
-0.98355955 0.59477025 -0.020062979 0 7 0
-1.0035309 0.60684717 0.020470362 0 8 0
-0.99361831 0.60085291 0.060853932 0 9 0
-0.99582803 0.60218918 0.10181445 0 10 0
-0.99397212 0.60106683 0.14262354 0 11 0
-1.0048536 0.60764706 0.18598957 0 12 0
-1.0090603 0.61019081 0.22921479 0 13 0
-0.99708647 0.60295016 0.26901111 0 14 0
-0.98356879 0.57571447 -0.305374 0 0 0
-0.9954502 0.58266902 -0.26629224 0 1 0
-0.98452473 0.57627398 -0.22174497 0 2 0
-0.99324763 0.58137983 -0.18228249 0 3 0
-0.98368061 0.57577991 -0.13994996 0 4 0
-0.99351084 0.58153391 -0.1007162 0 5 0
-0.99203062 0.58066744 -0.060241494 0 6 0
-0.98552823 0.57686138 -0.019932669 0 7 0
-0.98401576 0.57597607 0.019902078 0 8 0
-1.0033884 0.5873155 0.060931198 0 9 0
-0.99318475 0.581343 0.10068314 0 10 0
-1.0103099 0.59136695 0.14373855 0 11 0
-0.99649155 0.5832786 0.18287782 0 12 0
-0.99803334 0.58418107 0.22478753 0 13 0
-1.0081272 0.59008932 0.26968348 0 14 0
-0.97900695 0.55438656 -0.3014631 0 0 0
-0.97889704 0.55432433 -0.25971502 0 1 0
-0.98064727 0.55531543 -0.21905898 0 2 0
-0.98873943 0.55989784 -0.17996594 0 3 0
-0.98399705 0.55721235 -0.13884604 0 4 0
-0.98231232 0.55625832 -0.098763697 0 5 0
-0.98684824 0.55882686 -0.059434976 0 6 0
-0.98437923 0.55742878 -0.019746035 0 7 0
-0.98690051 0.55885649 0.01979661 0 8 0
-1.011107 0.57256401 0.060896009 0 9 0
-0.99887806 0.56563908 0.10042925 0 10 0
-0.98530275 0.55795169 0.13903028 0 11 0
-1.0073439 0.57043302 0.18335225 0 12 0
-1.0007659 0.56670815 0.22355314 0 13 0
-1.0025921 0.56774223 0.26600164 0 14 0
-0.99659503 0.54565877 -0.30444276 0 0 0
-0.98503846 0.53933132 -0.25926971 0 1 0
-0.97776794 0.5353505 -0.21668187 0 2 0
-0.97870535 0.53586376 -0.17672542 0 3 0
-0.99399561 0.54423553 -0.13914344 0 4 0
-0.99225372 0.54328179 -0.098971248 0 5 0
-0.98697352 0.54039079 -0.058970634 0 6 0
-0.99139494 0.54281157 -0.019728892 0 7 0
-0.9943105 0.54440796 0.019786911 0 8 0
-1.0064141 0.55103493 0.060132183 0 9 0
-0.9860661 0.53989393 0.098354071 0 10 0
-0.98936439 0.54169983 0.13849515 0 11 0
-0.99078172 0.54247588 0.17890605 0 12 0
-1.0100912 0.55304825 0.22384499 0 13 0
-1.0040315 0.54973042 0.26426885 0 14 0
-0.97530401 0.51599765 -0.29565224 0 0 0
-0.99032474 0.52394456 -0.2586607 0 1 0
-0.98674929 0.52205288 -0.21699405 0 2 0
-0.98936832 0.52343857 -0.1772798 0 3 0
-0.99215126 0.52491093 -0.13781941 0 4 0
-0.9862957 0.52181292 -0.097621992 0 5 0
-0.98272479 0.51992369 -0.058266163 0 6 0
-0.99371648 0.52573901 -0.01962333 0 7 0
-0.99541485 0.52663755 0.019656869 0 8 0
-0.9931702 0.52544999 0.058885474 0 9 0
-1.0004637 0.52930874 0.099024326 0 10 0
-0.99761552 0.52780181 0.13857844 0 11 0
-1.0049481 0.53168124 0.18007146 0 12 0
-0.99284959 0.52528036 0.21833555 0 13 0
-1.0135512 0.53623289 0.26472718 0 14 0
-0.98799121 0.50474608 -0.29727769 0 0 0
-0.98778123 0.50463885 -0.25608355 0 1 0
-0.99859077 0.51016122 -0.21796995 0 2 0
-0.98474985 0.50309014 -0.175144 0 3 0
-0.99354172 0.50758171 -0.13698931 0 4 0
-0.98716265 0.50432277 -0.096983381 0 5 0
-0.9953233 0.50849193 -0.0585756 0 6 0
-0.97545362 0.49834087 -0.01911987 0 7 0
-0.99522662 0.50844252 0.01950744 0 8 0
-1.0068598 0.5143857 0.059254535 0 9 0
-1.0040264 0.51293814 0.098640151 0 10 0
-0.99555767 0.50861168 0.13726728 0 11 0
-0.99708295 0.50939089 0.17733751 0 12 0
-0.99854976 0.51014024 0.217961 0 13 0
-0.99093467 0.50624985 0.25690109 0 14 0
-0.97184962 0.47908583 -0.29032779 0 0 0
-0.98463154 0.48538682 -0.25343984 0 1 0
-0.99324781 0.48963434 -0.21525189 0 2 0
-0.99361819 0.4898169 -0.17545636 0 3 0
-0.98515248 0.48564363 -0.13486035 0 4 0
-0.97948676 0.48285064 -0.095540486 0 5 0
-0.99196345 0.48900118 -0.057960019 0 6 0
-0.99860221 0.49227384 -0.019433502 0 7 0
-0.99056429 0.48831147 0.019277079 0 8 0
-0.99289644 0.48946112 0.058014534 0 9 0
-0.99168992 0.48886633 0.096730798 0 10 0
-0.98685628 0.48648354 0.13509358 0 11 0
-1.0078377 0.49682659 0.17796728 0 12 0
-1.0001428 0.49303332 0.21674614 0 13 0
-1.010552 0.49816465 0.26011169 0 14 0
-0.97730541 0.4645091 -0.2899417 0 0 0
-0.9862045 0.46873882 -0.25209197 0 1 0
-0.99636066 0.473566 -0.21443555 0 2 0
-0.99953622 0.47507533 -0.17528267 0 3 0
-1.0027672 0.47661099 -0.13632384 0 4 0
-0.98320544 0.46731338 -0.095241018 0 5 0
-0.98752874 0.46936825 -0.057302486 0 6 0
-0.98593813 0.46861222 -0.019054567 0 7 0
-0.9920041 0.47149533 0.019171799 0 8 0
-0.9776631 0.46467915 0.056730021 0 9 0
-0.99267775 0.47181553 0.096158572 0 10 0
-1.0005082 0.47553727 0.13601673 0 11 0
-1.0024534 0.47646186 0.17579424 0 12 0
-1.0015585 0.47603652 0.21555422 0 13 0
-1.0002027 0.4753921 0.25567016 0 14 0
-0.97813398 0.44785562 -0.2882562 0 0 0
-0.98517376 0.45107892 -0.25015247 0 1 0
-0.98579007 0.45136109 -0.21074854 0 2 0
-0.99337149 0.45483238 -0.17304222 0 3 0
-0.99635893 0.45620024 -0.13455117 0 4 0
-0.98860991 0.45265222 -0.09512718 0 5 0
-0.98027915 0.44883782 -0.056503244 0 6 0
-0.99261081 0.45448411 -0.019055851 0 7 0
-0.99298793 0.45465675 0.019063091 0 8 0
-0.99991524 0.45782855 0.057635069 0 9 0
-0.99854791 0.45720249 0.09608344 0 10 0
-1.005605 0.46043372 0.13579978 0 11 0
-0.99991852 0.45783007 0.1741827 0 12 0
-1.0147072 0.46460131 0.21693063 0 13 0
-1.0052817 0.46028566 0.2552582 0 14 0
-0.99503875 0.43847966 -0.29135859 0 0 0
-0.98538393 0.43422511 -0.24860221 0 1 0
-0.9941169 0.43807346 -0.21116656 0 2 0
-0.98595262 0.43447572 -0.1706491 0 3 0
-0.99198234 0.43713281 -0.13310155 0 4 0
-0.98710626 0.43498409 -0.094373725 0 5 0
-0.98640668 0.43467581 -0.056492031 0 6 0
-0.98186517 0.43267453 -0.018728748 0 7 0
-1.0005295 0.44089928 0.019084765 0 8 0
-0.99182636 0.43706411 0.056802422 0 9 0
-0.99248475 0.43735424 0.09488795 0 10 0
-0.99625051 0.43901366 0.13367425 0 11 0
-0.9920246 0.43715143 0.17170003 0 12 0
-0.98302102 0.43318388 0.20880961 0 13 0
-1.0103072 0.44520798 0.25489008 0 14 0
-0.98788989 0.41854933 -0.2874817 0 0 0
-1.0045732 0.42561772 -0.25188071 0 1 0
-0.98186433 0.4159964 -0.20727788 0 2 0
-0.98730761 0.41830263 -0.16982992 0 3 0
-0.99049002 0.41965094 -0.13208184 0 4 0
-0.99740034 0.42257872 -0.094769925 0 5 0
-1.0002662 0.42379293 -0.056932542 0 6 0
-0.9882403 0.41869777 -0.018734118 0 7 0
-0.99654126 0.42221475 0.01889148 0 8 0
-1.0037826 0.42528278 0.057132687 0 9 0
-0.99191982 0.4202567 0.094249174 0 10 0
-1.0008279 0.4240309 0.13346039 0 11 0
-1.0063984 0.42639101 0.17311379 0 12 0
-1.0008882 0.42405647 0.21129395 0 13 0
-0.99930793 0.4233869 0.25056052 0 14 0
-0.99037421 0.40298238 -0.28649676 0 0 0
-0.98522598 0.40088758 -0.2455658 0 1 0
-0.99391133 0.40442163 -0.20857769 0 2 0
-0.99905658 0.40651521 -0.17083251 0 3 0
-0.98667324 0.40147644 -0.13079317 0 4 0
-0.99051446 0.40303946 -0.093557917 0 5 0
-0.99441659 0.4046272 -0.056264192 0 6 0
-1.0065857 0.40957883 -0.018968815 0 7 0
-0.99123883 0.4033342 0.018679608 0 8 0
-0.98586982 0.40114954 0.055780612 0 9 0
-1.0049628 0.40891844 0.094922617 0 10 0
-1.0025256 0.40792677 0.13289456 0 11 0
-0.98594338 0.40117946 0.16859023 0 12 0
-1.0154029 0.41316652 0.21308781 0 13 0
-0.99530208 0.40498751 0.24807726 0 14 0
-0.99748451 0.3893306 -0.28691217 0 0 0
-0.98331845 0.3838014 -0.24369615 0 1 0
-0.99041063 0.38656956 -0.20666072 0 2 0
-0.99543834 0.38853192 -0.16924554 0 3 0
-0.9869101 0.38520327 -0.13008036 0 4 0
-0.98428106 0.38417709 -0.092440285 0 5 0
-0.99850309 0.38972816 -0.056174029 0 6 0
-0.99816865 0.38959759 -0.018703194 0 7 0
-0.98596436 0.38483414 0.018474516 0 8 0
-0.9866854 0.38511556 0.055509184 0 9 0
-1.0126323 0.39524293 0.095102936 0 10 0
-1.0082356 0.39352685 0.13289118 0 11 0
-0.98061597 0.38274658 0.16672543 0 12 0
-1.0080514 0.39345497 0.21034168 0 13 0
-1.0018229 0.39102396 0.24828213 0 14 0
-0.98425943 0.36802447 -0.28156415 0 0 0
-0.98118246 0.36687395 -0.24184059 0 1 0
-0.97523719 0.36465093 -0.20238477 0 2 0
-0.98197496 0.36717027 -0.16604593 0 3 0
-0.99818224 0.37323034 -0.13084856 0 4 0
-1.0121034 0.37843558 -0.094534859 0 5 0
-0.99182713 0.37085411 -0.055494133 0 6 0
-0.98156297 0.36701623 -0.018291738 0 7 0
-0.99301004 0.37129641 0.018505057 0 8 0
-1.0142704 0.37924588 0.056749869 0 9 0
-1.0021092 0.37469867 0.093601361 0 10 0
-1.0017567 0.37456688 0.13131712 0 11 0
-1.0147765 0.37943509 0.17159247 0 12 0
-0.99584514 0.37235647 0.20666142 0 13 0
-1.0197891 0.38130936 0.2513563 0 14 0
-0.98878723 0.35367164 -0.28138244 0 0 0
-0.99196404 0.35480794 -0.24322136 0 1 0
-0.99584734 0.35619694 -0.20558277 0 2 0
-0.98024386 0.35061583 -0.16488773 0 3 0
-0.99486464 0.35584542 -0.1297327 0 4 0
-0.98604816 0.35269195 -0.091620281 0 5 0
-0.99159706 0.35467666 -0.055191562 0 6 0
-1.008364 0.3606739 -0.018693063 0 7 0
-0.997455 0.35677195 0.018490832 0 8 0
-1.0025578 0.35859713 0.055801626 0 9 0
-1.0034182 0.3589049 0.093234241 0 10 0
-0.99808878 0.35699865 0.13015313 0 11 0
-1.013245 0.36241975 0.17043887 0 12 0
-1.0106622 0.36149591 0.20864114 0 13 0
-0.99512511 0.35593861 0.24399643 0 14 0
-0.98420417 0.33622366 -0.27868015 0 0 0
-0.99398988 0.33956665 -0.24250151 0 1 0
-0.98264289 0.33569029 -0.20184425 0 2 0
-0.99656761 0.34044725 -0.16679679 0 3 0
-0.9993155 0.34138599 -0.12966262 0 4 0
-0.9954434 0.34006321 -0.092031553 0 5 0
-0.98916662 0.33791891 -0.054781463 0 6 0
-1.0048798 0.34328684 -0.018535487 0 7 0
-1.0031341 0.3426905 0.018503286 0 8 0
-1.0042599 0.34307513 0.055617355 0 9 0
-0.99458355 0.33976945 0.091952056 0 10 0
-0.99598432 0.34024799 0.12923039 0 11 0
-1.0009681 0.34195054 0.16753329 0 12 0
-0.99667805 0.34048498 0.2047272 0 13 0
-1.0064334 0.34381756 0.24553731 0 14 0
-0.98641694 0.32128951 -0.27797607 0 0 0
-0.98787379 0.32176402 -0.23986121 0 1 0
-0.97669196 0.31812194 -0.1996661 0 2 0
-0.99227995 0.32319915 -0.16528794 0 3 0
-0.99973464 0.32562727 -0.12909903 0 4 0
-0.99227464 0.32319742 -0.091301546 0 5 0
-0.99076921 0.32270709 -0.054608811 0 6 0
-0.99793214 0.32504016 -0.01831964 0 7 0
-0.98849851 0.32196751 0.018146461 0 8 0
-0.99973422 0.32562715 0.055102944 0 9 0
-0.99387217 0.32371777 0.091448538 0 10 0
-0.99253356 0.32328176 0.12816912 0 11 0
-0.99109215 0.32281229 0.1650901 0 12 0
-1.006265 0.32775429 0.20571175 0 13 0
-1.0204737 0.33238229 0.24777666 0 14 0
-0.99855196 0.30950636 -0.28011864 0 0 0
-0.98828685 0.30632466 -0.23887244 0 1 0
-0.9773857 0.30294579 -0.1989011 0 2 0
-0.99505287 0.30842182 -0.16499759 0 3 0
-0.98344606 0.30482423 -0.12641926 0 4 0
-0.98338145 0.30480418 -0.090072602 0 5 0
-0.99691808 0.30899993 -0.054698341 0 6 0
-0.99462211 0.30828828 -0.018176008 0 7 0
-0.99155891 0.30733883 0.01812003 0 8 0
-0.9912138 0.30723187 0.054385364 0 9 0
-0.99881637 0.30958831 0.091486365 0 10 0
-1.0058674 0.31177381 0.12930144 0 11 0
-0.99686462 0.30898336 0.16529801 0 12 0
-1.0063059 0.31190977 0.20478646 0 13 0
-1.0035789 0.31106448 0.24256857 0 14 0
-0.99806994 0.29376781 -0.27877533 0 0 0
-0.98626393 0.29029289 -0.23735487 0 1 0
-1.0006227 0.29451922 -0.20275126 0 2 0
-0.99751443 0.29360431 -0.16469204 0 3 0
-0.97023761 0.28557578 -0.12418319 0 4 0
-1.0015671 0.29479715 -0.091342472 0 5 0
-0.99415934 0.29261678 -0.054311611 0 6 0
-0.99907041 0.29406229 -0.018178519 0 7 0
-0.99464202 0.29275888 0.018097943 0 8 0
-1.0052347 0.29587668 0.054916669 0 9 0
-1.0117888 0.29780579 0.092274688 0 10 0
-0.99739122 0.29356804 0.12765864 0 11 0
-1.0086524 0.29688263 0.16653095 0 12 0
-1.0113859 0.29768717 0.20493214 0 13 0
-1.0153552 0.29885551 0.24435601 0 14 0
-0.98196465 0.27381855 -0.2731542 0 0 0
-0.98420405 0.274443 -0.23588961 0 1 0
-0.980712 0.27346924 -0.19790342 0 2 0
-0.97906214 0.27300918 -0.16098386 0 3 0
-0.99259275 0.27678218 -0.12652445 0 4 0
-1.0042137 0.28002262 -0.091208957 0 5 0
-1.0069611 0.28078878 -0.054785807 0 6 0
-1.0043592 0.28006324 -0.018199949 0 7 0
-0.99570024 0.27764869 0.018043039 0 8 0
-0.99850345 0.27843037 0.054325648 0 9 0
-1.0089474 0.28134263 0.0916389 0 10 0
-0.99308574 0.27691963 0.12658729 0 11 0
-0.99661779 0.27790457 0.16387048 0 12 0
-1.0057623 0.28045449 0.20295848 0 13 0
-1.0137016 0.28266829 0.24295942 0 14 0
-0.98950118 0.26071632 -0.2741845 0 0 0
-0.99603599 0.26243815 -0.23780076 0 1 0
-0.99703252 0.26270071 -0.20041753 0 2 0
-0.98457134 0.25941738 -0.16126266 0 3 0
-0.99995166 0.26346985 -0.12696876 0 4 0
-0.98604357 0.25980529 -0.08921174 0 5 0
-0.99547476 0.26229027 -0.053951081 0 6 0
-0.9893133 0.26066682 -0.017857861 0 7 0
-0.99562806 0.26233065 0.017971847 0 8 0
-0.99579495 0.26237464 0.053968433 0 9 0
-1.0019195 0.26398832 0.090648107 0 10 0
-1.0076357 0.26549447 0.12794444 0 11 0
-1.0061926 0.26511422 0.164804 0 12 0
-1.0142622 0.26724043 0.20388094 0 13 0
-1.0032839 0.26434782 0.23953116 0 14 0
-0.98833936 0.2453384 -0.27286154 0 0 0
-0.97845209 0.24288404 -0.23274881 0 1 0
-0.98448199 0.24438088 -0.19717138 0 2 0
-1.0040556 0.24923968 -0.16385289 0 3 0
-0.98924226 0.24556252 -0.12514982 0 4 0
-0.99102622 0.24600537 -0.089334816 0 5 0
-1.0038553 0.24918996 -0.054206416 0 6 0
-0.99039221 0.24584797 -0.017811993 0 7 0
-1.0017442 0.24866591 0.018016156 0 8 0
-1.0147312 0.25188971 0.054793693 0 9 0
-1.0018367 0.24868888 0.090309314 0 10 0
-0.98716664 0.24504729 0.12488724 0 11 0
-1.0020168 0.24873357 0.16352016 0 12 0
-1.0105612 0.25085458 0.2023945 0 13 0
-1.0023273 0.24881065 0.2384281 0 14 0
-0.98877186 0.23047411 -0.27204233 0 0 0
-0.99468517 0.23185246 -0.23579668 0 1 0
-1.0008923 0.23329929 -0.19976877 0 2 0
-0.97955304 0.22832529 -0.15930465 0 3 0
-1.0093086 0.23526105 -0.12724939 0 4 0
-1.0094873 0.2353027 -0.090686068 0 5 0
-0.99580109 0.23211257 -0.053586613 0 6 0
-0.99358648 0.23159637 -0.017807998 0 7 0
-1.0011939 0.23336959 0.017944345 0 8 0
-1.0035169 0.23391105 0.054001819 0 9 0
-1.000402 0.23318498 0.089869902 0 10 0
-1.0037276 0.23396017 0.12654576 0 11 0
-0.991373 0.23108041 0.16122691 0 12 0
-1.0069686 0.23471561 0.20098153 0 13 0
-1.0040581 0.23403722 0.2380186 0 14 0
-0.99469101 0.21689272 -0.27278879 0 0 0
-0.99885982 0.21780173 -0.23602311 0 1 0
-0.99006844 0.21588476 -0.19697149 0 2 0
-0.99496591 0.21695267 -0.16128969 0 3 0
-0.99781072 0.21757297 -0.1253943 0 4 0
-0.99237221 0.21638711 -0.08886122 0 5 0
-0.9893676 0.21573195 -0.053068809 0 6 0
-1.0048465 0.21910711 -0.01795176 0 7 0
-0.98729527 0.21528007 0.017638206 0 8 0
-1.0005662 0.21817382 0.053669494 0 9 0
-1.0095539 0.22013359 0.09039975 0 10 0
-1.0001073 0.21807374 0.12568292 0 11 0
-1.0142772 0.22116351 0.16442017 0 12 0
-1.0076405 0.21971636 0.20046739 0 13 0
-0.98586792 0.21496885 0.23295322 0 14 0
-0.98365623 0.19978352 -0.26895079 0 0 0
-0.9907192 0.20121804 -0.23339508 0 1 0
-0.98397958 0.19984919 -0.19517104 0 2 0
-0.99114883 0.20130529 -0.16018742 0 3 0
-0.99793774 0.20268413 -0.12503287 0 4 0
-0.99814963 0.20272718 -0.0891096 0 5 0
-1.0068362 0.20449144 -0.053843293 0 6 0
-1.0017669 0.20346186 -0.017842891 0 7 0
-1.0004971 0.20320396 0.017820273 0 8 0
-1.0090439 0.20493984 0.053961359 0 9 0
-1.0062137 0.204365 0.089829512 0 10 0
-1.0043455 0.20398559 0.12583573 0 11 0
-1.0180643 0.2067719 0.16453744 0 12 0
-1.0153818 0.20622708 0.20139964 0 13 0
-0.99504983 0.20209759 0.23441531 0 14 0
-0.98905843 0.18618263 -0.26967159 0 0 0
-0.99082345 0.18651487 -0.23276687 0 1 0
-0.98998362 0.18635678 -0.19581279 0 2 0
-0.99695051 0.18766823 -0.16067448 0 3 0
-0.98179871 0.18481605 -0.1226668 0 4 0
-0.995781 0.1874481 -0.088649526 0 5 0
-0.99168354 0.18667679 -0.052884657 0 6 0
-0.98316664 0.18507354 -0.017462621 0 7 0
-1.0108814 0.19029064 0.01795488 0 8 0
-0.99182624 0.18670364 0.052892264 0 9 0
-1.001195 0.18846723 0.089131504 0 10 0
-1.0061241 0.18939511 0.12570603 0 11 0
-1.0006429 0.1883633 0.16126956 0 12 0
-1.0063698 0.18944135 0.19905388 0 13 0
-1.0077827 0.18970732 0.23675098 0 14 0
-0.99029398 0.17177783 -0.26931047 0 0 0
-0.98234046 0.17039821 -0.23017746 0 1 0
-0.98163438 0.17027573 -0.19365945 0 2 0
-0.99311358 0.17226692 -0.15964235 0 3 0
-1.0018545 0.17378315 -0.12484902 0 4 0
-0.99093801 0.17188954 -0.087990336 0 5 0
-0.98192787 0.17032664 -0.052229039 0 6 0
-0.99637789 0.17283316 -0.017651526 0 7 0
-1.0023725 0.17387299 0.017757725 0 8 0
-0.99099684 0.17189975 0.052711423 0 9 0
-0.99880743 0.17325459 0.088689104 0 10 0
-1.0175586 0.17650719 0.12680602 0 11 0
-1.0185522 0.17667955 0.1637316 0 12 0
-1.0112418 0.17541146 0.19950049 0 13 0
-1.0087032 0.17497112 0.23635466 0 14 0
-0.99147314 0.15740016 -0.26899093 0 0 0
-0.99252993 0.15756793 -0.23201279 0 1 0
-1.001287 0.15895815 -0.19706753 0 2 0
-0.99573588 0.15807688 -0.15968381 0 3 0
-1.0024632 0.15914489 -0.12462824 0 4 0
-1.0070143 0.15986738 -0.089205503 0 5 0
-0.98862559 0.1569481 -0.052460432 0 6 0
-0.99084407 0.15730029 -0.017511809 0 7 0
-0.99614131 0.15814126 0.017605431 0 8 0
-1.008984 0.16018008 0.053540729 0 9 0
-1.0077397 0.15998253 0.089269765 0 10 0
-1.0103639 0.16039915 0.12561047 0 11 0
-0.98419827 0.15624525 0.15783356 0 12 0
-1.0033739 0.15928945 0.19747825 0 13 0
-1.0081617 0.16004953 0.23566686 0 14 0
-0.99329692 0.1431469 -0.2689023 0 0 0
-0.98623544 0.14212924 -0.23004228 0 1 0
-0.98985463 0.14265083 -0.19439571 0 2 0
-1.0076815 0.14521991 -0.16124964 0 3 0
-0.99249572 0.14303143 -0.12312192 0 4 0
-0.99447286 0.14331637 -0.087903813 0 5 0
-0.99966651 0.14406484 -0.052931461 0 6 0
-0.98986447 0.14265224 -0.017456621 0 7 0
-1.0141279 0.14614891 0.017884515 0 8 0
-0.99913245 0.14398788 0.052903183 0 9 0
-0.99690413 0.14366676 0.088118717 0 10 0
-0.99504429 0.14339872 0.12343808 0 11 0
-0.99809235 0.14383799 0.15971519 0 12 0
-1.003401 0.14460304 0.19705607 0 13 0
-0.99813366 0.14384395 0.23281759 0 14 0
-0.99465978 0.12884052 -0.26874447 0 0 0
-0.99363881 0.12870827 -0.23131573 0 1 0
-0.99144739 0.12842442 -0.19432761 0 2 0
-0.97566772 0.12638043 -0.15582137 0 3 0
-0.98892826 0.1280981 -0.12243937 0 4 0
-1.0008059 0.12963663 -0.088290542 0 5 0
-1.009703 0.13078912 -0.053358302 0 6 0
-0.99235266 0.12854166 -0.017466266 0 7 0
-1.0050682 0.13018875 0.01769007 0 8 0
-0.99549979 0.12894933 0.052607719 0 9 0
-0.99201989 0.12849857 0.087515444 0 10 0
-1.0140618 0.13135371 0.12555116 0 11 0
-1.0074255 0.13049409 0.16089331 0 12 0
-1.0115628 0.13103001 0.19827029 0 13 0
-1.0132631 0.13125025 0.2358842 0 14 0
-0.98896956 0.113737 -0.26673988 0 0 0
-0.99034363 0.11389503 -0.23014554 0 1 0
-0.98556536 0.1133455 -0.19283696 0 2 0
-1.0005789 0.11507213 -0.15952046 0 3 0
-0.99574345 0.11451603 -0.12306762 0 4 0
-0.99180454 0.11406304 -0.087343469 0 5 0
-1.0096825 0.11611911 -0.053263925 0 6 0
-1.0047603 0.11555302 -0.017653732 0 7 0
-0.99204928 0.11409118 0.017430397 0 8 0
-1.0023321 0.11527376 0.052876167 0 9 0
-0.99755859 0.11472479 0.087850206 0 10 0
-0.99242508 0.11413441 0.12265749 0 11 0
-1.0080929 0.11593629 0.16071841 0 12 0
-1.0160331 0.11684946 0.19879831 0 13 0
-1.0194321 0.11724035 0.23690538 0 14 0
-0.98696685 0.099216439 -0.26578945 0 0 0
-0.99204576 0.099727005 -0.23018579 0 1 0
-0.99888122 0.10041416 -0.19514114 0 2 0
-0.97551584 0.098065317 -0.15528503 0 3 0
-1.0049556 0.1010248 -0.12401477 0 4 0
-1.0024782 0.10077575 -0.088147394 0 5 0
-1.0047837 0.10100752 -0.052923813 0 6 0
-0.99883652 0.10040966 -0.017522603 0 7 0
-0.99960363 0.10048678 0.017536061 0 8 0
-0.99777502 0.10030296 0.052554648 0 9 0
-0.99163216 0.099685438 0.087193705 0 10 0
-1.0025485 0.10078281 0.12371771 0 11 0
-1.0018938 0.10071699 0.15948392 0 12 0
-0.99783617 0.1003091 0.19493698 0 13 0
-0.99826509 0.10035221 0.23162888 0 14 0
-1.0014408 0.086213328 -0.26932737 0 0 0
-0.990439 0.085266188 -0.22950628 0 1 0
-0.99787265 0.085906148 -0.19468394 0 2 0
-0.99840146 0.085951671 -0.15871592 0 3 0
-1.0036434 0.086402945 -0.12368754 0 4 0
-0.99490958 0.085651062 -0.087365143 0 5 0
-0.99659669 0.085796304 -0.052422531 0 6 0
-1.006373 0.086637944 -0.017631255 0 7 0
-1.0081838 0.086793832 0.01766298 0 8 0
-1.0085554 0.086825818 0.053051576 0 9 0
-1.0059419 0.086600818 0.088333905 0 10 0
-1.0022368 0.086281851 0.1235142 0 11 0
-1.0128484 0.087195404 0.16101255 0 12 0
-1.0081552 0.086791366 0.19669008 0 13 0
-1.0116355 0.087090991 0.234418 0 14 0
-0.98759466 0.070798188 -0.26530388 0 0 0
-0.98377877 0.070524633 -0.22770573 0 1 0
-1.0080326 0.07226333 -0.19644421 0 2 0
-0.99694794 0.071468703 -0.15830602 0 3 0
-0.99500185 0.071329191 -0.12248421 0 4 0
-0.99307245 0.071190871 -0.087105416 0 5 0
-0.99819964 0.071558431 -0.052447598 0 6 0
-0.99928027 0.071635902 -0.017487239 0 7 0
-0.99222744 0.071130298 0.017363815 0 8 0
-0.99979365 0.0716727 0.05253135 0 9 0
-0.99629003 0.071421534 0.087387636 0 10 0
-0.99961835 0.071660139 0.12305249 0 11 0
-0.99770647 0.071523078 0.15842646 0 12 0
-1.0090339 0.072335109 0.19663936 0 13 0
-1.0106987 0.072454453 0.23393662 0 14 0
-1.0008574 0.057364363 -0.26861864 0 0 0
-0.9851473 0.056463934 -0.2278121 0 1 0
-0.98855543 0.056659278 -0.19247079 0 2 0
