# .PCD v0.7 - Point Cloud Data file format
VERSION 0.7
FIELDS x y z intensity ring time
SIZE 4 4 4 4 2 4
TYPE F F F F U F
COUNT 1 1 1 1 1 1
WIDTH 1200
HEIGHT 1
VIEWPOINT 0 0 0 1 0 0 0
POINTS 1200
DATA ascii
0.9981184 -1.9365907 -0.50298595 0 1 0
0.99883944 -1.9379897 -0.42379677 0 2 0
0.99785358 -1.936077 -0.34497613 0 3 0
0.99742836 -1.9352518 -0.2673223 0 4 0
1.0018585 -1.9438473 -0.1913233 0 5 0
1.0087596 -1.9572371 -0.11539663 0 6 0
0.99816823 -1.9366875 -0.038030755 0 7 0
0.99660295 -1.9336505 0.037971117 0 8 0
1.4985722 -2.9075921 0.17142855 0 9 0
1.4962046 -2.9029982 0.28572777 0 10 0
1.5034808 -2.9171157 0.40295017 0 11 0
1.4931709 -2.8971119 0.51621628 0 12 0
1.493191 -2.897151 0.6335448 0 13 0
1.4785118 -2.86867 0.7450726 0 14 0
1.272042 -2.4680688 0.74398398 0 15 0
0.99871755 -1.871484 -0.56839818 0 0 0
1.001572 -1.8768331 -0.49113837 0 1 0
1.0052133 -1.8836563 -0.41501907 0 2 0
1.003921 -1.8812348 -0.33772999 0 3 0
0.99606413 -1.8665119 -0.2597698 0 4 0
0.99268603 -1.8601817 -0.18446811 0 5 0
0.99822402 -1.8705593 -0.11111722 0 6 0
1.0031379 -1.8797673 -0.037191156 0 7 0
0.99788237 -1.8699191 0.036996312 0 8 0
1.4952356 -2.8019028 0.16644202 0 9 0
1.5002766 -2.8113492 0.27879226 0 10 0
1.5028006 -2.8160789 0.39192477 0 11 0
1.4962537 -2.8038106 0.5033561 0 12 0
1.5009488 -2.812609 0.61969179 0 13 0
1.5025645 -2.8156364 0.73680878 0 14 0
1.305783 -2.4468901 0.7431578 0 15 0
1.0026233 -1.8157502 -0.55577266 0 0 0
1.0025729 -1.815659 -0.47883627 0 1 0
0.99965113 -1.8103676 -0.40198299 0 2 0
1.0007337 -1.8123282 -0.32789746 0 3 0
1.0031887 -1.8167741 -0.25481993 0 4 0
1.0039401 -1.8181349 -0.18170486 0 5 0
0.99825203 -1.8078339 -0.10822883 0 6 0
1.0006833 -1.812237 -0.036134757 0 7 0
0.99900979 -1.8092062 0.036074325 0 8 0
1.5020299 -2.7201753 0.16284758 0 9 0
1.5041066 -2.7239363 0.27223089 0 10 0
1.4999163 -2.7163477 0.38099366 0 11 0
1.5006561 -2.7176874 0.49170053 0 12 0
1.5039968 -2.7237375 0.60479218 0 13 0
1.5033222 -2.7225158 0.71799785 0 14 0
1.3461894 -2.4379482 0.74621773 0 15 0
1.0006909 -1.7524997 -0.54074144 0 0 0
0.99934518 -1.7501429 -0.46528268 0 1 0
1.0048367 -1.7597601 -0.39389914 0 2 0
1.0011386 -1.7532836 -0.3197746 0 3 0
0.99840343 -1.7484936 -0.24722199 0 4 0
1.0047264 -1.7595669 -0.17727065 0 5 0
1.0020819 -1.7549356 -0.10590982 0 6 0
0.99562097 -1.7436206 -0.035047155 0 7 0
0.99922103 -1.7499255 0.035173882 0 8 0
1.4978825 -2.6232262 0.15831088 0 9 0
1.4961642 -2.6202171 0.26397836 0 10 0
1.5032401 -2.6326089 0.37222829 0 11 0
1.5065247 -2.6383612 0.48120046 0 12 0
1.5018471 -2.6301694 0.58872879 0 13 0
1.4999259 -2.6268048 0.69834679 0 14 0
1.3860621 -2.4273963 0.74898374 0 15 0
1.0013312 -1.6967559 -0.52790976 0 0 0
1.0033425 -1.7001641 -0.45576692 0 1 0
0.99312282 -1.6828468 -0.37982604 0 2 0
1.007823 -1.7077562 -0.31406984 0 3 0
1.0055351 -1.7038795 -0.24292405 0 4 0
1.0047549 -1.7025573 -0.1729583 0 5 0
0.99320459 -1.6829854 -0.1024151 0 6 0
0.99755126 -1.6903508 -0.034259908 0 7 0
1.0069262 -1.7062366 0.034581881 0 8 0
1.5024521 -2.5459054 0.15492657 0 9 0
1.5000162 -2.5417776 0.25821248 0 10 0
1.4976882 -2.5378327 0.36182174 0 11 0
1.4966394 -2.5360556 0.46640065 0 12 0
1.4981364 -2.5385923 0.57297158 0 13 0
1.4975587 -2.5376136 0.68026394 0 14 0
1.4155221 -2.3986022 0.74627441 0 15 0
1.0010146 -1.6420645 -0.51529872 0 0 0
1.0084275 -1.6542248 -0.4472754 0 1 0
1.0019443 -1.6435896 -0.37416407 0 2 0
1.0026509 -1.6447486 -0.30509034 0 3 0
0.99498165 -1.6321681 -0.23470648 0 4 0
0.99648869 -1.6346402 -0.16749059 0 5 0
1.0006323 -1.6414373 -0.10074802 0 6 0
1.0053737 -1.6492152 -0.033714384 0 7 0
0.99258465 -1.6282359 0.033285514 0 8 0
1.4988061 -2.4586418 0.15090634 0 9 0
1.4950572 -2.452492 0.25129035 0 10 0
1.5069739 -2.4720402 0.35548046 0 11 0
1.500342 -2.4611611 0.45652968 0 12 0
1.5017627 -2.4634919 0.56081527 0 13 0
1.5001266 -2.460808 0.66536236 0 14 0
1.4537354 -2.3847077 0.74834871 0 15 0
1.0032303 -1.5939147 -0.50464332 0 0 0
1.0038704 -1.5949316 -0.43508407 0 1 0
0.99822503 -1.5859623 -0.36426055 0 2 0
0.99909133 -1.5873387 -0.29706338 0 3 0
0.99780643 -1.5852972 -0.22999664 0 4 0
0.99246442 -1.57681 -0.16300397 0 5 0
0.99870431 -1.5867239 -0.098257147 0 6 0
1.0035616 -1.5944411 -0.032884933 0 7 0
0.99861813 -1.5865868 0.032722943 0 8 0
1.5016683 -2.3858242 0.14774106 0 9 0
1.504721 -2.3906744 0.24713783 0 10 0
1.4959924 -2.3768065 0.34482965 0 11 0
1.5026151 -2.3873284 0.44677791 0 12 0
1.5078521 -2.3956487 0.5502277 0 13 0
1.502825 -2.3876619 0.65133429 0 14 0
1.4743888 -2.342483 0.74164474 0 15 0
0.99751574 -1.5356357 -0.49066204 0 0 0
0.99768776 -1.5359005 -0.42283311 0 1 0
0.99808037 -1.5365049 -0.35614598 0 2 0
0.99792212 -1.5362613 -0.2901479 0 3 0
0.99594772 -1.5332217 -0.22448668 0 4 0
1.0010862 -1.5411325 -0.16078056 0 5 0
0.99665076 -1.5343041 -0.095884643 0 6 0
0.99306118 -1.5287781 -0.031820554 0 7 0
1.0031947 -1.5443783 0.032145262 0 8 0
1.4969085 -2.304431 0.14401287 0 9 0
1.5035343 -2.3146312 0.2414768 0 10 0
1.4989728 -2.3076088 0.33786854 0 11 0
1.5027614 -2.3134413 0.43693095 0 12 0
1.5057092 -2.3179793 0.53728366 0 13 0
1.4925808 -2.2977686 0.63257527 0 14 0
1.4946815 -2.3010025 0.73520988 0 15 0
1.0018046 -1.4949576 -0.48219696 0 0 0
0.99459976 -1.484206 -0.4124786 0 1 0
0.99826139 -1.4896702 -0.34856638 0 2 0
1.0022447 -1.4956143 -0.28515124 0 3 0
0.99646926 -1.4869958 -0.21978429 0 4 0
0.99426788 -1.4837108 -0.1562587 0 5 0
0.99047518 -1.4780511 -0.093245603 0 6 0
0.99984628 -1.4920353 -0.031350445 0 7 0
1.0003628 -1.4928061 0.031366639 0 8 0
1.5032221 -2.2432053 0.14151677 0 9 0
1.4964988 -2.2331722 0.23518907 0 10 0
1.4934154 -2.2285709 0.32939222 0 11 0
1.4962248 -2.2327633 0.42569479 0 12 0
1.4973662 -2.2344666 0.52284056 0 13 0
1.5070976 -2.2489884 0.62502074 0 14 0
1.5022545 -2.2417612 0.7230776 0 15 0
0.9951539 -1.4400306 -0.46902665 0 0 0
1.0052576 -1.454651 -0.40822187 0 1 0
1.00134 -1.4489821 -0.34236446 0 2 0
0.98913455 -1.4313203 -0.27556416 0 3 0
0.9964608 -1.4419216 -0.2152082 0 4 0
0.99738896 -1.4432648 -0.15348686 0 5 0
1.0009443 -1.4484094 -0.092269994 0 6 0
1.0011805 -1.4487513 -0.030738927 0 7 0
0.99517512 -1.4400613 0.030554546 0 8 0
1.4988353 -2.1688793 0.13816707 0 9 0
1.4896305 -2.1555595 0.22923724 0 10 0
1.497152 -2.1664433 0.32334378 0 11 0
1.5029331 -2.174809 0.41870391 0 12 0
1.501842 -2.1732299 0.51348925 0 13 0
1.4905931 -2.1569524 0.60531026 0 14 0
1.5123183 -2.1883898 0.71277177 0 15 0
1.0018812 -1.4062973 -0.46266291 0 0 0
0.99856013 -1.4016358 -0.39731443 0 1 0
1.0011637 -1.4052904 -0.33539253 0 2 0
0.9991827 -1.4025097 -0.2727429 0 3 0
0.99525881 -1.3970019 -0.21060847 0 4 0
1.0022752 -1.4068505 -0.15112448 0 5 0
0.99429959 -1.3956554 -0.089806765 0 6 0
1.0067489 -1.4131299 -0.030285774 0 7 0
0.99877536 -1.4019378 0.030045906 0 8 0
1.5072 -2.1155915 0.13613278 0 9 0
1.5088006 -2.1178381 0.22749908 0 10 0
1.4994581 -2.1047246 0.31730297 0 11 0
1.5040903 -2.1112266 0.4105655 0 12 0
1.4974511 -2.1019073 0.50165009 0 13 0
1.4927016 -2.0952408 0.59392709 0 14 0
1.5059929 -2.1138973 0.69545877 0 15 0
0.99758309 -1.3586878 -0.45165107 0 0 0
0.99530888 -1.3555903 -0.38826075 0 1 0
0.99992055 -1.3618714 -0.3284122 0 2 0
0.99814069 -1.3594472 -0.26711962 0 3 0
0.99840921 -1.359813 -0.20713517 0 4 0
0.99800736 -1.3592656 -0.14753227 0 5 0
1.0095387 -1.374971 -0.089396447 0 6 0
1.0064394 -1.37075 -0.029683193 0 7 0
0.99732238 -1.3583326 0.029414302 0 8 0
1.4985696 -2.0410211 0.13270101 0 9 0
1.4980044 -2.0402513 0.22144526 0 10 0
1.500324 -2.0434105 0.31126502 0 11 0
1.4945925 -2.0356045 0.3999787 0 12 0
1.5010197 -2.044358 0.49299234 0 13 0
1.4997953 -2.0426905 0.58505619 0 14 0
1.4974517 -2.0394986 0.67796415 0 15 0
1.0024401 -1.3251218 -0.44521719 0 0 0
0.99458116 -1.314733 -0.380597 0 1 0
1.0044477 -1.3277756 -0.32362393 0 2 0
0.99900275 -1.3205779 -0.26226494 0 3 0
0.99816048 -1.3194646 -0.20314455 0 4 0
1.0019578 -1.3244842 -0.14529888 0 5 0
1.0036012 -1.3266567 -0.087180227 0 6 0
0.99846876 -1.319872 -0.028887969 0 7 0
1.0038345 -1.3269651 0.029043213 0 8 0
1.4904482 -1.9702178 0.12947136 0 9 0
1.5041271 -1.9883001 0.21812096 0 10 0
1.5047573 -1.989133 0.30624661 0 11 0
1.499462 -1.9821332 0.39364889 0 12 0
1.4977101 -1.9798173 0.48254862 0 13 0
1.4972032 -1.9791472 0.5729357 0 14 0
1.4906102 -1.9704319 0.66202986 0 15 0
0.99881649 -1.2817827 -0.43541482 0 0 0
0.99864608 -1.281564 -0.37509453 0 1 0
1.0030848 -1.2872603 -0.31721592 0 2 0
1.0015771 -1.2853255 -0.25808454 0 3 0
0.99544591 -1.2774572 -0.19885041 0 4 0
1.0013535 -1.2850385 -0.14252934 0 5 0
1.0049044 -1.2895954 -0.085681207 0 6 0
1.0029976 -1.2871484 -0.028483046 0 7 0
0.99871463 -1.281652 0.028361419 0 8 0
1.4950434 -1.9185915 0.12747195 0 9 0
1.5036085 -1.9295831 0.21401866 0 10 0
1.4977852 -1.9221101 0.29919779 0 11 0
1.4962444 -1.9201328 0.38554949 0 12 0
1.5011805 -1.9264673 0.47473392 0 13 0
1.5094837 -1.9371227 0.56696671 0 14 0
1.5039215 -1.9299848 0.65560561 0 15 0
0.99392641 -1.2385309 -0.42551145 0 0 0
0.99970788 -1.245735 -0.36875829 0 1 0
1.0058179 -1.2533487 -0.31237495 0 2 0
1.001734 -1.2482599 -0.25349507 0 3 0
1.0058203 -1.2533518 -0.19731894 0 4 0
1.0078125 -1.2558342 -0.14087571 0 5 0
1.0002263 -1.246381 -0.083752654 0 6 0
0.99501044 -1.2398816 -0.027749406 0 7 0
0.99557739 -1.2405881 0.027765218 0 8 0
1.5030676 -1.8729712 0.12585744 0 9 0
1.4985597 -1.8673539 0.20947415 0 10 0
1.4968476 -1.8652205 0.29364726 0 11 0
1.4939209 -1.8615735 0.37804607 0 12 0
1.4987751 -1.8676224 0.46547174 0 13 0
1.5006633 -1.8699752 0.55354375 0 14 0
1.4945475 -1.8623543 0.63983315 0 15 0
0.99838305 -1.2082437 -0.41997254 0 0 0
0.99904537 -1.2090453 -0.36209339 0 1 0
0.99887735 -1.2088419 -0.30481455 0 2 0
1.0036204 -1.2145818 -0.24954751 0 3 0
0.99377465 -1.2026666 -0.19155918 0 4 0
1.0097557 -1.2220069 -0.13868816 0 5 0
1.0061055 -1.2175895 -0.082777172 0 6 0
0.99672329 -1.2062351 -0.027312871 0 7 0
1.0028874 -1.2136948 0.027481783 0 8 0
1.4971744 -1.8118813 0.12317979 0 9 0
1.4983119 -1.8132578 0.20579049 0 10 0
1.5001965 -1.8155385 0.28917661 0 11 0
1.4995922 -1.8148072 0.37286958 0 12 0
1.5125005 -1.830429 0.46155035 0 13 0
1.4968717 -1.811515 0.54252523 0 14 0
1.49747 -1.8122391 0.62991488 0 15 0
1.0003459 -1.1759312 -0.41367561 0 0 0
0.99905103 -1.1744089 -0.35596639 0 1 0
1.0033242 -1.179432 -0.30098909 0 2 0
0.9976905 -1.1728096 -0.24387406 0 3 0
1.0092784 -1.1864314 -0.19125465 0 4 0
0.99719042 -1.1722217 -0.13464405 0 5 0
0.99393439 -1.1683942 -0.080391616 0 6 0
1.0018003 -1.1776408 -0.026987329 0 7 0
0.99748456 -1.1725675 0.026871068 0 8 0
1.5045151 -1.7685941 0.12168851 0 9 0
1.5156661 -1.7817025 0.20465039 0 10 0
1.49751 -1.7603595 0.2837728 0 11 0
1.4953293 -1.7577962 0.36551619 0 12 0
1.5017828 -1.7653823 0.45052266 0 13 0
1.4999156 -1.7631875 0.53442675 0 14 0
1.5097302 -1.7747247 0.62432253 0 15 0
1.0003544 -1.1424007 -0.40687546 0 0 0
0.99571091 -1.1370978 -0.34894142 0 1 0
0.99575657 -1.1371499 -0.29380596 0 2 0
1.00172 -1.1439601 -0.24083188 0 3 0
0.99586314 -1.1372718 -0.18560882 0 4 0
0.99944544 -1.1413627 -0.13272907 0 5 0
1.0015301 -1.1437433 -0.079673693 0 6 0
1.0013661 -1.1435561 -0.026531974 0 7 0
1.0040674 -1.1466409 0.026603544 0 8 0
1.4989815 -1.7118309 0.11924693 0 9 0
1.4914901 -1.7032757 0.19807394 0 10 0
1.4966965 -1.7092212 0.27895406 0 11 0
1.5073763 -1.7214177 0.36240098 0 12 0
1.4973818 -1.710004 0.44181454 0 13 0
1.4981277 -1.7108557 0.52501065 0 14 0
1.4926701 -1.7046232 0.60711563 0 15 0
1.012742 -1.1236839 -0.4053306 0 0 0
0.99143052 -1.1000377 -0.34188849 0 1 0
1.0043623 -1.1143861 -0.2916089 0 2 0
1.0025632 -1.1123899 -0.23718236 0 3 0
0.99556583 -1.1046261 -0.18258785 0 4 0
0.99897856 -1.1084126 -0.13054675 0 5 0
0.99487823 -1.1038631 -0.077879615 0 6 0
0.99992353 -1.1094611 -0.026070321 0 7 0
1.0050153 -1.1151105 0.026203072 0 8 0
0.99934793 -1.1088225 0.078229509 0 9 0
1.4954668 -1.6592891 0.19542795 0 10 0
1.501724 -1.6662319 0.2754178 0 11 0
1.5063254 -1.6713372 0.35636038 0 12 0
1.5027982 -1.6674236 0.43632594 0 13 0
1.4927223 -1.6562439 0.51475573 0 14 0
1.494728 -1.6584693 0.5982362 0 15 0
0.99346107 -1.0710608 -0.39143786 0 0 0
1.0004066 -1.0785489 -0.33962545 0 1 0
0.99562788 -1.0733969 -0.28458294 0 2 0
0.99960101 -1.0776805 -0.23280847 0 3 0
1.0016986 -1.0799417 -0.1808591 0 4 0
0.99818987 -1.076159 -0.1284176 0 5 0
1.0009707 -1.0791571 -0.077139482 0 6 0
0.99863797 -1.0766422 -0.025632391 0 7 0
0.99722695 -1.0751209 0.025596173 0 8 0
0.99947661 -1.0775462 0.077024333 0 9 0
1.5016183 -1.6189104 0.19318388 0 10 0
1.4895819 -1.605934 0.26894763 0 11 0
1.4984708 -1.6155171 0.34899592 0 12 0
1.5051033 -1.6226678 0.43020764 0 13 0
1.4981767 -1.6152002 0.5086121 0 14 0
1.5021251 -1.619457 0.5918588 0 15 0
0.98912549 -1.0362381 -0.38384619 0 0 0
0.99551165 -1.0429285 -0.33286172 0 1 0
0.99787647 -1.0454059 -0.28091988 0 2 0
1.0004178 -1.0480683 -0.22948132 0 3 0
1.0034206 -1.0512141 -0.17843506 0 4 0
0.99717832 -1.0446745 -0.12635081 0 5 0
1.0027734 -1.050536 -0.076111794 0 6 0
0.99692863 -1.044413 -0.02520223 0 7 0
0.99360085 -1.0409266 0.025118103 0 8 0
0.9946751 -1.042052 0.075497128 0 9 0
1.5013781 -1.5728896 0.19023712 0 10 0
1.5136369 -1.5857323 0.26916519 0 11 0
1.4935439 -1.5646822 0.34259728 0 12 0
1.506516 -1.5782722 0.42411092 0 13 0
1.4953411 -1.566565 0.49998593 0 14 0
1.5084512 -1.5802996 0.58537894 0 15 0
0.99923229 -1.0172696 -0.38207868 0 0 0
1.0025295 -1.0206264 -0.33028981 0 1 0
0.99958909 -1.017633 -0.27727306 0 2 0
1.0001576 -1.0182117 -0.2260554 0 3 0
1.0048518 -1.0229907 -0.17606771 0 4 0
1.0011414 -1.0192132 -0.12499169 0 5 0
1.0015273 -1.0196061 -0.074901842 0 6 0
0.99481165 -1.0127692 -0.024779711 0 7 0
1.0024997 -1.020596 0.024971213 0 8 0
1.0006083 -1.0186706 0.07483311 0 9 0
1.5017122 -1.52882 0.18748754 0 10 0
1.5031314 -1.5302647 0.26337504 0 11 0
1.5082375 -1.535463 0.34089148 0 12 0
1.4987475 -1.5258017 0.41573313 0 13 0
1.5043027 -1.5314572 0.49560219 0 14 0
1.5061996 -1.5333884 0.57592893 0 15 0
0.9980998 -0.98744166 -0.37620279 0 0 0
1.0107893 -0.99999565 -0.32826179 0 1 0
1.0155225 -1.0046782 -0.27767539 0 2 0
0.99127448 -0.98068917 -0.22085235 0 3 0
0.99453181 -0.98391175 -0.17177424 0 4 0
1.0035101 -0.9927941 -0.12350062 0 5 0
0.99717057 -0.98652232 -0.073512435 0 6 0
0.99433947 -0.98372144 -0.02441472 0 7 0
0.9963392 -0.98569983 0.024463821 0 8 0
0.98964161 -0.97907376 0.072957397 0 9 0
1.5082531 -1.4921473 0.18561865 0 10 0
1.4967623 -1.4807792 0.25851882 0 11 0
1.4862094 -1.4703389 0.33112204 0 12 0
1.5000396 -1.4840214 0.41015741 0 13 0
1.4930469 -1.4771035 0.48487872 0 14 0
1.4979025 -1.4819072 0.56458789 0 15 0
1.0007786 -0.96214265 -0.37198356 0 0 0
1.0008448 -0.9622063 -0.32052666 0 1 0
0.99945676 -0.96087188 -0.26949432 0 2 0
1.0033212 -0.96458715 -0.22043769 0 3 0
1.0022653 -0.96357203 -0.17071033 0 4 0
1.000761 -0.96212578 -0.12145503 0 5 0
1.0010779 -0.96243042 -0.072777472 0 6 0
1.0033336 -0.96459901 -0.024294063 0 7 0
1.0013565 -0.96269822 0.024246192 0 8 0
1.0043007 -0.96552885 0.073011771 0 9 0
1.5002728 -1.4423534 0.18207709 0 10 0
1.503841 -1.445784 0.25614095 0 11 0
1.4957336 -1.4379896 0.32862464 0 12 0
1.5029151 -1.4448937 0.40524721 0 13 0
1.4922963 -1.434685 0.47791702 0 14 0
1.5008827 -1.4429399 0.55786937 0 15 0
0.98996395 -0.92484897 -0.36300623 0 0 0
1.0042732 -0.93821704 -0.31729138 0 1 0
1.0105448 -0.94407612 -0.26881289 0 2 0
0.99536753 -0.92989713 -0.21574377 0 3 0
0.98859274 -0.92356801 -0.16611294 0 4 0
0.99953026 -0.93378603 -0.1196713 0 5 0
0.99670255 -0.93114442 -0.071483143 0 6 0
0.99910849 -0.93339205 -0.023865823 0 7 0
0.98948163 -0.92439836 0.023635864 0 8 0
1.0101876 -0.94374239 0.07245028 0 9 0
1.5006129 -1.4019099 0.1796647 0 10 0
1.4964759 -1.3980451 0.25145239 0 11 0
1.4918087 -1.3936847 0.32334632 0 12 0
1.4962729 -1.3978554 0.39802042 0 13 0
1.4961818 -1.3977704 0.47270563 0 14 0
1.5092571 -1.4099857 0.55342394 0 15 0
0.99980485 -0.90759563 -0.36181417 0 0 0
1.0036027 -0.91104317 -0.31292754 0 1 0
0.99490738 -0.90314978 -0.26118773 0 2 0
1.0025766 -0.91011173 -0.21446082 0 3 0
0.99938643 -0.90721577 -0.1657277 0 4 0
0.9987039 -0.90659618 -0.11800663 0 5 0
0.99599648 -0.90413845 -0.070497133 0 6 0
1.0153419 -0.92169964 -0.023936003 0 7 0
1.0000508 -0.90781879 0.023575526 0 8 0
1.0006701 -0.90838099 0.070827931 0 9 0
1.4999679 -1.36163 0.17723589 0 10 0
1.4950908 -1.3572026 0.24793006 0 11 0
1.5104201 -1.3711182 0.32309344 0 12 0
1.5047094 -1.3659341 0.39502335 0 13 0
1.50546 -1.3666155 0.46940875 0 14 0
1.4980667 -1.3599041 0.54212749 0 15 0
0.99842519 -0.88061011 -0.35671693 0 0 0
0.99737471 -0.87968361 -0.30702814 0 1 0
1.0093876 -0.890279 -0.26161703 0 2 0
1.0048896 -0.88631177 -0.21222016 0 3 0
0.99733406 -0.87964779 -0.16328271 0 4 0
1.0000501 -0.8820433 -0.11666197 0 5 0
1.0104343 -0.89120215 -0.070608929 0 6 0
1.0076225 -0.88872212 -0.02345174 0 7 0
1.0103612 -0.89113778 0.023515483 0 8 0
1.0015264 -0.88334531 0.06998644 0 9 0
1.5006551 -1.3235765 0.17506061 0 10 0
1.50719 -1.3293403 0.2467559 0 11 0
1.5032845 -1.3258955 0.31747493 0 12 0
1.4892862 -1.3135492 0.38599899 0 13 0
1.5109063 -1.3326181 0.46511185 0 14 0
1.4974109 -1.3207151 0.5349943 0 15 0
0.9942683 -0.85195684 -0.35083899 0 0 0
1.0056674 -0.8617245 -0.30575272 0 1 0
1.0031897 -0.85960126 -0.25679532 0 2 0
1.0007174 -0.85748285 -0.20872563 0 3 0
1.0026411 -0.85913122 -0.16212167 0 4 0
1.0090715 -0.86464119 -0.11625872 0 5 0
0.99602586 -0.85346287 -0.068741374 0 6 0
1.0120052 -0.86715502 -0.02326248 0 7 0
1.0061802 -0.86216378 0.023128586 0 8 0
0.98948067 -0.8478545 0.068289652 0 9 0
1.4909799 -1.2775732 0.17178111 0 10 0
1.4922726 -1.2786809 0.24129246 0 11 0
1.4964229 -1.2822372 0.3121179 0 12 0
1.508044 -1.292195 0.38602737 0 13 0
1.5039847 -1.2887167 0.45725593 0 14 0
1.505594 -1.2900956 0.53126609 0 15 0
0.99610478 -0.82910407 -0.3472639 0 0 0
0.99877679 -0.83132809 -0.30000931 0 1 0
0.99956769 -0.83198637 -0.25279394 0 2 0
0.9938696 -0.82724357 -0.20480667 0 3 0
0.99773204 -0.83045846 -0.15938956 0 4 0
0.99440902 -0.82769257 -0.11319286 0 5 0
0.99799687 -0.83067888 -0.068049848 0 6 0
1.0007936 -0.83300674 -0.022728365 0 7 0
0.99546832 -0.82857424 0.022607425 0 8 0
1.0117024 -0.84208667 0.068984374 0 9 0
1.4857955 -1.2366962 0.16912702 0 10 0
1.5029517 -1.2509762 0.24009936 0 11 0
1.4986372 -1.2473849 0.30882412 0 12 0
1.498822 -1.2475388 0.37905699 0 13 0
1.4997332 -1.2482972 0.45048496 0 14 0
1.4901381 -1.2403108 0.51949471 0 15 0
1.0030793 -0.81089097 -0.34561366 0 0 0
0.9970817 -0.80604249 -0.2960043 0 1 0
1.0039653 -0.81160718 -0.25094244 0 2 0
0.99553847 -0.80479497 -0.20275602 0 3 0
1.0029114 -0.81075531 -0.15834689 0 4 0
1.0045964 -0.81211734 -0.11301773 0 5 0
1.0040348 -0.81166333 -0.067662448 0 6 0
0.99713862 -0.80608851 -0.022381036 0 7 0
1.0051749 -0.81258506 0.022561412 0 8 0
0.99500334 -0.8043623 0.06705381 0 9 0
1.5036867 -1.2155827 0.1691657 0 10 0
1.4929235 -1.2068818 0.23571353 0 11 0
1.505025 -1.2166647 0.30652043 0 12 0
1.5023911 -1.2145355 0.37552467 0 13 0
1.507683 -1.2188134 0.44758683 0 14 0
1.4990989 -1.211874 0.51651853 0 15 0
0.99824578 -0.78362781 -0.34004876 0 0 0
0.99800044 -0.78343523 -0.29291803 0 1 0
1.0030496 -0.78739882 -0.24787115 0 2 0
0.99964374 -0.78472519 -0.2012839 0 3 0
0.99432093 -0.78054678 -0.15521069 0 4 0
0.99413526 -0.78040099 -0.11057286 0 5 0
1.0038527 -0.78802931 -0.066883199 0 6 0
0.98158389 -0.77054811 -0.021782123 0 7 0
0.99813956 -0.78354442 0.022149505 0 8 0
0.98951381 -0.77677315 0.065927848 0 9 0
1.4896333 -1.1693695 0.16568471 0 10 0
1.4971435 -1.175265 0.23369987 0 11 0
1.4950972 -1.1736586 0.30104625 0 12 0
1.5033098 -1.1801056 0.3714942 0 13 0
1.4940054 -1.1728015 0.43849793 0 14 0
1.4929442 -1.1719686 0.50856602 0 15 0
0.99858719 -0.7610513 -0.33641985 0 0 0
1.0005088 -0.76251584 -0.29042113 0 1 0
1.0070933 -0.76753408 -0.24613035 0 2 0
0.99305338 -0.75683379 -0.19775537 0 3 0
1.0010172 -0.76290333 -0.15453559 0 4 0
0.98888433 -0.75365651 -0.10877785 0 5 0
1.001265 -0.76309216 -0.065976307 0 6 0
0.9991048 -0.76144576 -0.021926824 0 7 0
1.0066489 -0.76719528 0.022092389 0 8 0
1.0027959 -0.76425892 0.066077188 0 9 0
1.5059727 -1.1477441 0.16565788 0 10 0
1.4994483 -1.1427716 0.23148265 0 11 0
1.5031104 -1.1455625 0.29932746 0 12 0
1.5086519 -1.1497859 0.36870962 0 13 0
1.5001652 -1.1433181 0.43545812 0 14 0
1.4945679 -1.1390522 0.50351369 0 15 0
0.98821026 -0.73102349 -0.32936504 0 0 0
0.9939065 -0.7352373 -0.28542063 0 1 0
1.0065864 -0.74461722 -0.24337676 0 2 0
1.0140126 -0.75011063 -0.1997706 0 3 0
0.99945968 -0.73934519 -0.15264577 0 4 0
0.99675262 -0.73734272 -0.10847132 0 5 0
0.99588871 -0.73670363 -0.064920567 0 6 0
1.0082293 -0.74583244 -0.021890542 0 7 0
0.99054623 -0.73275155 0.021506611 0 8 0
1.0028347 -0.74184185 0.065373361 0 9 0
1.5004827 -1.1099745 0.16328959 0 10 0
1.5082828 -1.1157446 0.23035747 0 11 0
1.4917294 -1.1034992 0.29388559 0 12 0
1.503763 -1.112401 0.36358619 0 13 0
1.502232 -1.1112685 0.43139672 0 14 0
1.4959601 -1.1066289 0.49859533 0 15 0
1.006183 -0.72226924 -0.33187565 0 0 0
1.003217 -0.7201401 -0.28510505 0 1 0
1.0129526 -0.72712862 -0.24237472 0 2 0
1.0024992 -0.71962482 -0.19545306 0 3 0
0.99268943 -0.71258312 -0.15003864 0 4 0
0.99865359 -0.71686435 -0.10755055 0 5 0
1.0048392 -0.72130454 -0.064824365 0 6 0
1.0045512 -0.72109783 -0.021584377 0 7 0
0.99462891 -0.71397531 0.02137118 0 8 0
1.0024449 -0.71958584 0.064669907 0 9 0
1.5032783 -1.0790995 0.16189638 0 10 0
1.4992248 -1.0761898 0.2265982 0 11 0
1.4959645 -1.0738494 0.29166195 0 12 0
1.5062133 -1.0812063 0.36039993 0 13 0
1.4982626 -1.0754992 0.42579249 0 14 0
1.4886422 -1.0685933 0.49100816 0 15 0
1.0056409 -0.70029062 -0.32835704 0 0 0
0.99980283 -0.69622523 -0.2812739 0 1 0
0.99992365 -0.69630933 -0.23684819 0 2 0
1.0006509 -0.69681573 -0.19312838 0 3 0
0.99502581 -0.69289869 -0.14887752 0 4 0
0.99801803 -0.69498235 -0.10639989 0 5 0
0.99818152 -0.69509619 -0.06374649 0 6 0
1.0076244 -0.70167184 -0.021432417 0 7 0
0.99315041 -0.69159275 0.021124551 0 8 0
1.0085536 -0.70231891 0.064408876 0 9 0
1.5035063 -1.0469855 0.1602906 0 10 0
1.5080014 -1.0501157 0.22562982 0 11 0
1.500156 -1.0446525 0.28953424 0 12 0
1.4985253 -1.0435168 0.3549501 0 13 0
1.5076748 -1.0498881 0.42415318 0 14 0
1.5039328 -1.0472825 0.49105692 0 15 0
1.0027819 -0.67719656 -0.3242254 0 0 0
1.0030831 -0.67740005 -0.27944037 0 1 0
0.99351192 -0.67093641 -0.23303087 0 2 0
0.99851453 -0.67431474 -0.19083369 0 3 0
0.99989194 -0.67524499 -0.1481443 0 4 0
0.99430996 -0.67147535 -0.10496916 0 5 0
1.0002373 -0.67547816 -0.06325385 0 6 0
0.99686408 -0.67320019 -0.020996435 0 7 0
0.99332786 -0.67081213 0.020921953 0 8 0
1.0074047 -0.68031842 0.063707106 0 9 0
1.5086732 -1.018834 0.15927041 0 10 0
1.5008732 -1.0135666 0.22236985 0 11 0
1.5035144 -1.0153502 0.28734803 0 12 0
1.5076997 -1.0181767 0.35363501 0 13 0
1.5024141 -1.0146072 0.41854471 0 14 0
1.5109035 -1.0203402 0.4885143 0 15 0
1.0114651 -0.66218221 -0.32393521 0 0 0
1.0014102 -0.65559953 -0.27633184 0 1 0
0.99308026 -0.65014607 -0.23072329 0 2 0
0.9850086 -0.64486176 -0.18646932 0 3 0
0.99951011 -0.65435559 -0.14668503 0 4 0
1.0044761 -0.65760666 -0.10503794 0 5 0
0.99801552 -0.65337706 -0.062515527 0 6 0
0.98972476 -0.64794934 -0.020648606 0 7 0
0.99201643 -0.64944959 0.020696416 0 8 0
0.99366301 -0.6505276 0.062242884 0 9 0
1.4971402 -0.98014212 0.15655577 0 10 0
1.4972912 -0.980241 0.21973784 0 11 0
1.4961705 -0.97950733 0.28323597 0 12 0
1.5062934 -0.98613459 0.3499586 0 13 0
1.4965363 -0.97974676 0.41295823 0 14 0
1.509619 -0.98831171 0.48347563 0 15 0
0.99705529 -0.6325497 -0.31638822 0 0 0
1.0007439 -0.63488984 -0.27361232 0 1 0
0.99891317 -0.63372838 -0.22994746 0 2 0
0.9972769 -0.63269031 -0.18705827 0 3 0
1.006313 -0.63842297 -0.14632733 0 4 0
0.9968493 -0.63241905 -0.10328326 0 5 0
0.99309009 -0.63003409 -0.0616358 0 6 0
1.0008079 -0.63493043 -0.020688111 0 7 0
1.0120029 -0.6420328 0.020919528 0 8 0
1.0017902 -0.6355536 0.062175766 0 9 0
1.5084691 -0.95699972 0.15629202 0 10 0
1.4855529 -0.94246131 0.2160133 0 11 0
1.4935751 -0.94755071 0.28014842 0 12 0
1.4978889 -0.95028752 0.34481052 0 13 0
1.504621 -0.95455843 0.41137683 0 14 0
1.5059446 -0.9553982 0.47787032 0 15 0
1.0082693 -0.61960584 -0.31709996 0 0 0
1.0154997 -0.62404907 -0.27517635 0 1 0
1.0047187 -0.61742383 -0.22922602 0 2 0
1.0064135 -0.6184653 -0.18709239 0 3 0
1.0045555 -0.61732352 -0.1447721 0 4 0
0.99796528 -0.61327368 -0.10247889 0 5 0
1.0063584 -0.61843151 -0.061903562 0 6 0
1.0085543 -0.61978096 -0.020662744 0 7 0
0.98295176 -0.60404754 0.020138212 0 8 0
0.99490374 -0.61139232 0.061198957 0 9 0
1.4975468 -0.92027861 0.15377983 0 10 0
1.5027438 -0.92347229 0.21656881 0 11 0
1.4896533 -0.91542786 0.27692676 0 12 0
1.4910423 -0.9162814 0.34018052 0 13 0
1.4907565 -0.91610581 0.40395966 0 14 0
1.489187 -0.91514134 0.46834823 0 15 0
0.99613196 -0.59267586 -0.310583 0 0 0
1.0070015 -0.59914297 -0.27052197 0 1 0
1.0075377 -0.59946203 -0.22788824 0 2 0
1.0022851 -0.59633684 -0.18471925 0 3 0
1.0004541 -0.59524745 -0.14293852 0 4 0
1.0082713 -0.59989846 -0.10264494 0 5 0
0.99903303 -0.59440196 -0.060923375 0 6 0
0.99864036 -0.59416831 -0.020283315 0 7 0
0.99746799 -0.59347075 0.020259503 0 8 0
1.0045931 -0.59771007 0.061262447 0 9 0
1.4853762 -0.88376504 0.1512156 0 10 0
1.4977678 -0.89113772 0.21399154 0 11 0
1.4886719 -0.88572592 0.27435941 0 12 0
1.4944357 -0.88915527 0.33801645 0 13 0
1.5024803 -0.89394158 0.40362793 0 14 0
1.4961278 -0.89016205 0.4664762 0 15 0
0.99037254 -0.57021737 -0.30621114 0 0 0
0.9889425 -0.56939405 -0.26345417 0 1 0
1.0031395 -0.57756811 -0.22500053 0 2 0
1.0091581 -0.58103335 -0.18443429 0 3 0
0.99183041 -0.57105678 -0.14052421 0 4 0
0.99734128 -0.57422972 -0.10068518 0 5 0
0.99602658 -0.57347274 -0.060233299 0 6 0
0.99768442 -0.57442731 -0.020094844 0 7 0
0.99696481 -0.57401294 0.02008035 0 8 0
1.0045563 -0.57838386 0.060749121 0 9 0
1.5038764 -0.86587262 0.15182172 0 10 0
1.491015 -0.85846752 0.21124952 0 11 0
1.5073333 -0.867863 0.27548108 0 12 0
1.5017297 -0.86463666 0.33683252 0 13 0
1.5044599 -0.86620855 0.40078792 0 14 0
1.5079194 -0.86820042 0.4662303 0 15 0
0.9960072 -0.55463445 -0.30546746 0 0 0
0.99818051 -0.55584466 -0.26376867 0 1 0
1.0032651 -0.55867612 -0.22321226 0 2 0
1.0032381 -0.55866104 -0.18187229 0 3 0
1.0080394 -0.56133467 -0.14166784 0 4 0
0.99858654 -0.5560708 -0.099997126 0 5 0
1.001524 -0.55770653 -0.060076851 0 6 0
0.9967382 -0.55504155 -0.019913729 0 7 0
0.99132371 -0.55202645 0.019805554 0 8 0
0.9914934 -0.55212092 0.059475161 0 9 0
1.4901924 -0.82982546 0.14922589 0 10 0
1.4985352 -0.83447117 0.21060115 0 11 0
1.5074682 -0.83944565 0.27328181 0 12 0
1.5032065 -0.83707243 0.33444211 0 13 0
1.5016251 -0.83619177 0.39680362 0 14 0
1.4893538 -0.82935846 0.45677292 0 15 0
0.99921781 -0.53783321 -0.30405998 0 0 0
0.99649346 -0.53636682 -0.26126739 0 1 0
1.0066313 -0.54182357 -0.22221294 0 2 0
1.0036584 -0.54022342 -0.18052822 0 3 0
0.99326092 -0.5346269 -0.13850129 0 4 0
0.99176538 -0.53382194 -0.098538831 0 5 0
0.99980265 -0.53814805 -0.059505444 0 6 0
1.0132264 -0.54537344 -0.02008513 0 7 0
0.99720216 -0.53674829 0.019767482 0 8 0
1.0029885 -0.53986281 0.059695054 0 9 0
1.4962033 -0.80533779 0.14865826 0 10 0
1.5016576 -0.80827361 0.20939262 0 11 0
1.489731 -0.80185401 0.26795816 0 12 0
1.5035377 -0.80928552 0.33190459 0 13 0
1.494524 -0.80443388 0.39184439 0 14 0
1.4934946 -0.8038798 0.45446742 0 15 0
0.99455947 -0.51710635 -0.3003594 0 0 0
1.0089628 -0.52459508 -0.26254106 0 1 0
1.0109082 -0.52560669 -0.22147365 0 2 0
0.99936467 -0.51960474 -0.17839988 0 3 0
0.99797559 -0.51888251 -0.13810892 0 4 0
1.0008273 -0.52036524 -0.098689049 0 5 0
1.006544 -0.52333748 -0.05945475 0 6 0
0.98831344 -0.5138588 -0.01944349 0 7 0
0.98951226 -0.51448214 0.019467074 0 8 0
1.0053051 -0.52269334 0.059381571 0 9 0
1.4860476 -0.77264827 0.14653541 0 10 0
1.4943686 -0.77697462 0.20680428 0 11 0
1.498135 -0.77893293 0.26743701 0 12 0
1.4933357 -0.77643758 0.32716569 0 13 0
1.5071235 -0.78360635 0.39216694 0 14 0
1.4860481 -0.77264851 0.44879016 0 15 0
0.99727732 -0.50052005 -0.29898599 0 0 0
1.0008804 -0.5023284 -0.25854057 0 1 0
0.99713355 -0.50044787 -0.21686429 0 2 0
1.0159017 -0.50986737 -0.18003073 0 3 0
1.0065864 -0.50519216 -0.1382857 0 4 0
1.0058844 -0.50483984 -0.0984651 0 5 0
0.99741811 -0.50059074 -0.058486477 0 6 0
1.0054598 -0.50462675 -0.019636706 0 7 0
1.0019622 -0.50287133 0.019568397 0 8 0
1.0109043 -0.50735927 0.059277281 0 9 0
1.49221 -0.74892014 0.14607106 0 10 0
1.491846 -0.74873739 0.20495108 0 11 0
1.5041171 -0.7548961 0.26654872 0 12 0
1.4982542 -0.7519536 0.32585189 0 13 0
1.5017799 -0.75372308 0.3879295 0 14 0
1.4974076 -0.75152868 0.44892615 0 15 0
0.99829775 -0.48327142 -0.29718766 0 0 0
0.99778831 -0.48302478 -0.25592971 0 1 0
0.9997071 -0.48395368 -0.21589534 0 2 0
1.0022588 -0.4851889 -0.17636426 0 3 0
1.0122803 -0.4900403 -0.13809018 0 4 0
1.0100985 -0.48898408 -0.098182417 0 5 0
1.0073208 -0.48763943 -0.058651861 0 6 0
0.99302953 -0.48072109 -0.019257588 0 7 0
0.98157895 -0.47517791 0.019035529 0 8 0
0.98837334 -0.47846705 0.057548635 0 9 0
1.4989721 -0.72564554 0.14570135 0 10 0
1.5007771 -0.72651935 0.20472844 0 11 0
1.5058018 -0.72895181 0.26497114 0 12 0
1.4977717 -0.72506446 0.32345667 0 13 0
1.4976664 -0.72501349 0.38414696 0 14 0
1.4975715 -0.72496754 0.44581863 0 15 0
1.0037191 -0.46828437 -0.29677576 0 0 0
0.98441422 -0.45927769 -0.25078744 0 1 0
1.0059352 -0.46931827 -0.21576752 0 2 0
0.99428642 -0.46388358 -0.17377523 0 3 0
1.0033928 -0.46813214 -0.13594979 0 4 0
0.99770463 -0.46547833 -0.096320249 0 5 0
0.99661434 -0.46496966 -0.057635058 0 6 0
1.0038717 -0.46835554 -0.01933586 0 7 0
1.0149609 -0.47352925 0.019549454 0 8 0
1.0103825 -0.47139323 0.058431286 0 9 0
1.5012355 -0.70040029 0.14493205 0 10 0
1.5031443 -0.70129085 0.20366119 0 11 0
1.512733 -0.70576441 0.26438609 0 12 0
1.5153525 -0.70698655 0.32503474 0 13 0
1.5046738 -0.70200443 0.38332778 0 14 0
1.4956819 -0.69780928 0.44223744 0 15 0
0.99645263 -0.44764221 -0.29270279 0 0 0
1.0054545 -0.4516862 -0.25447452 0 1 0
0.99298102 -0.44608265 -0.21159771 0 2 0
1.0086396 -0.45311701 -0.17513232 0 3 0
1.0049729 -0.45146981 -0.13527448 0 4 0
1.0078226 -0.45275 -0.096661523 0 5 0
1.0093994 -0.45345837 -0.057993133 0 6 0
0.99778885 -0.44824249 -0.019093163 0 7 0
0.99889678 -0.44874018 0.019114364 0 8 0
0.99538761 -0.44716376 0.057188112 0 9 0
1.4991354 -0.67346531 0.14378396 0 10 0
1.4883809 -0.668634 0.20034367 0 11 0
1.500967 -0.67428809 0.26061621 0 12 0
1.5059633 -0.67653269 0.32091087 0 13 0
1.5154349 -0.68078762 0.38354748 0 14 0
1.5056695 -0.67640066 0.44228259 0 15 0
1.0061544 -0.43480319 -0.29369441 0 0 0
0.99581456 -0.4303349 -0.25045007 0 1 0
1.0015889 -0.43283027 -0.2120901 0 2 0
1.0012206 -0.43267107 -0.17275113 0 3 0
1.0183111 -0.44005668 -0.13620809 0 4 0
0.99646729 -0.43061697 -0.09497153 0 5 0
1.0006926 -0.4324429 -0.057131425 0 6 0
1.0018066 -0.43292433 -0.019049518 0 7 0
0.98658699 -0.42634726 0.018760115 0 8 0
0.99412441 -0.42960453 0.056756437 0 9 0
1.4918127 -0.64467734 0.14218204 0 10 0
1.5034343 -0.64969957 0.20109758 0 11 0
1.5057944 -0.65071946 0.25981057 0 12 0
1.4978856 -0.64730167 0.31718272 0 13 0
1.4986885 -0.64764863 0.37692425 0 14 0
1.5047939 -0.65028709 0.43924627 0 15 0
0.99520302 -0.41326955 -0.28874147 0 0 0
1.0059582 -0.41773576 -0.25147167 0 1 0
0.99804729 -0.41445068 -0.21006246 0 2 0
0.99524784 -0.41328818 -0.17068243 0 3 0
0.99095154 -0.41150409 -0.13174716 0 4 0
0.99902338 -0.41485602 -0.094639517 0 5 0
1.0091931 -0.41907907 -0.057268403 0 6 0
0.98797858 -0.41026953 -0.018672999 0 7 0
0.99404061 -0.41278684 0.018787572 0 8 0
0.99189246 -0.41189483 0.056286655 0 9 0
1.4942098 -0.62048787 0.14154953 0 10 0
1.4974877 -0.62184912 0.19909121 0 11 0
1.4961001 -0.62127286 0.25657728 0 12 0
1.4996924 -0.62276465 0.31564543 0 13 0
1.4934236 -0.62016141 0.37332937 0 14 0
1.5085505 -0.62644303 0.43768063 0 15 0
1.0040935 -0.40021062 -0.28962925 0 0 0
0.98882294 -0.39412406 -0.24575277 0 1 0
0.99911141 -0.39822486 -0.20906532 0 2 0
0.99865836 -0.39804429 -0.1702728 0 3 0
1.0106823 -0.4028368 -0.1335901 0 4 0
1.0008956 -0.398936 -0.094266288 0 5 0
1.0176297 -0.40560588 -0.057411827 0 6 0
0.98988581 -0.39454773 -0.018600404 0 7 0
0.99516934 -0.39665362 0.018699685 0 8 0
1.0096375 -0.40242034 0.056960929 0 9 0
1.4877679 -0.59299308 0.14012086 0 10 0
1.4945246 -0.59568614 0.19754346 0 11 0
1.4973433 -0.59680963 0.25529936 0 12 0
1.4970545 -0.59669447 0.31326053 0 13 0
1.4974053 -0.5968343 0.37215105 0 14 0
1.493403 -0.5952391 0.4307698 0 15 0
0.99164402 -0.37889305 -0.28444472 0 0 0
1.00142 -0.38262832 -0.24749705 0 1 0
1.0074557 -0.38493448 -0.20963699 0 2 0
0.99497265 -0.38016486 -0.16869932 0 3 0
0.99665219 -0.3808066 -0.13100174 0 4 0
1.0080271 -0.38515279 -0.094409063 0 5 0
1.0051707 -0.38406143 -0.056393009 0 6 0
1.0086081 -0.38537475 -0.018846625 0 7 0
0.99157202 -0.37886554 0.018528294 0 8 0
0.99792051 -0.38129121 0.055986252 0 9 0
1.483601 -0.56686282 0.13895001 0 10 0
1.50992 -0.5769189 0.19846657 0 11 0
1.4985775 -0.57258505 0.25408638 0 12 0
1.4954773 -0.57140058 0.31118724 0 13 0
1.5067555 -0.57570976 0.37238872 0 14 0
1.5099095 -0.57691491 0.43310484 0 15 0
1.0030336 -0.36688152 -0.28617615 0 0 0
1.0020703 -0.36652917 -0.24633594 0 1 0
0.98385704 -0.35986724 -0.20363374 0 2 0
1.0075046 -0.36851683 -0.16991237 0 3 0
1.0042374 -0.36732182 -0.13129424 0 4 0
0.99770188 -0.36493132 -0.092943296 0 5 0
0.9999845 -0.36576623 -0.05580261 0 6 0
0.9927659 -0.36312586 -0.018451592 0 7 0
0.99811876 -0.36508378 0.01855108 0 8 0
1.0115644 -0.37000182 0.056448806 0 9 0
1.495037 -0.54684252 0.13927373 0 10 0
1.4974017 -0.5477075 0.19577065 0 11 0
1.499019 -0.54829901 0.2528047 0 12 0
1.490253 -0.54509264 0.30844501 0 13 0
1.4898483 -0.54494464 0.36624494 0 14 0
1.5052794 -0.55058891 0.42947218 0 15 0
0.99503493 -0.34789205 -0.28244436 0 0 0
1.0022793 -0.35042489 -0.24512918 0 1 0
0.99948633 -0.34944838 -0.20581228 0 2 0
0.99872375 -0.34918174 -0.16757146 0 3 0
0.9893626 -0.34590882 -0.12868899 0 4 0
1.0156453 -0.35509801 -0.094131723 0 5 0
0.99846625 -0.34909174 -0.055433378 0 6 0
0.99285495 -0.34712985 -0.018359018 0 7 0
0.99253964 -0.34701961 0.018353187 0 8 0
0.99245685 -0.34699067 0.055099741 0 9 0
1.4993333 -0.52420884 0.13896075 0 10 0
1.5000918 -0.52447408 0.1951209 0 11 0
1.4943745 -0.52247512 0.25073451 0 12 0
1.5103503 -0.52806067 0.31100839 0 13 0
1.4992052 -0.52416408 0.36666319 0 14 0
1.4992937 -0.52419502 0.42558008 0 15 0
0.98515046 -0.32869035 -0.27827469 0 0 0
1.0081164 -0.33635283 -0.24535418 0 1 0
0.99860394 -0.33317903 -0.2046276 0 2 0
1.0062543 -0.33573157 -0.16801149 0 3 0
1.0001624 -0.33369899 -0.12945922 0 4 0
0.99609011 -0.3323403 -0.091869026 0 5 0
0.98234224 -0.32775339 -0.054272182 0 6 0
0.99480921 -0.33191293 -0.018305432 0 7 0
1.008281 -0.33640772 0.018553324 0 8 0
1.0168054 -0.33925185 0.056176189 0 9 0
1.5093384 -0.50358295 0.13920572 0 10 0
1.499679 -0.50036013 0.19411574 0 11 0
1.5079569 -0.50312197 0.25177935 0 12 0
1.4927747 -0.49805656 0.30588996 0 13 0
1.4952269 -0.49887469 0.36390656 0 14 0
1.5002453 -0.50054908 0.42377314 0 15 0
1.000424 -0.31794837 -0.28127468 0 0 0
0.99531978 -0.31632617 -0.24111311 0 1 0
0.98293602 -0.31239045 -0.20048025 0 2 0
1.0068804 -0.32000029 -0.16733411 0 3 0
0.99536574 -0.31634077 -0.12823913 0 4 0
0.99921036 -0.31756264 -0.091728188 0 5 0
1.0130625 -0.32196504 -0.055709094 0 6 0
0.99978679 -0.31774583 -0.01831146 0 7 0
1.0050722 -0.31942561 0.018408263 0 8 0
1.0111749 -0.32136515 0.055605296 0 9 0
1.5135422 -0.4810243 0.13894419 0 10 0
1.4975978 -0.47595698 0.19294479 0 11 0
1.4998478 -0.47667202 0.24926068 0 12 0
1.4903196 -0.47364387 0.30396655 0 13 0
1.494544 -0.47498643 0.36204863 0 14 0
1.4898002 -0.47347876 0.41886544 0 15 0
1.0099531 -0.30513287 -0.28269693 0 0 0
1.0024388 -0.30286258 -0.24176276 0 1 0
0.99836564 -0.30163199 -0.20272595 0 2 0
1.0025319 -0.30289072 -0.16587394 0 3 0
1.0031323 -0.30307212 -0.12866767 0 4 0
0.98716849 -0.29824904 -0.090221599 0 5 0
1.0054214 -0.30376375 -0.055044174 0 6 0
0.99671894 -0.30113447 -0.018174464 0 7 0
1.0103079 -0.30524006 0.018422252 0 8 0
1.0039892 -0.30333102 0.054965761 0 9 0
1.5048929 -0.45466697 0.13753869 0 10 0
1.5005043 -0.45334098 0.19246352 0 11 0
1.5085813 -0.45578128 0.24960235 0 12 0
1.5022049 -0.45385483 0.30503446 0 13 0
1.5008099 -0.45343336 0.36195719 0 14 0
1.4952577 -0.45175588 0.41853899 0 15 0
1.0027971 -0.28737462 -0.2795139 0 0 0
1.0039381 -0.28770158 -0.24110648 0 1 0
1.0087537 -0.2890816 -0.20397422 0 2 0
1.0055257 -0.28815657 -0.16566989 0 3 0
1.0001481 -0.28661546 -0.1277456 0 4 0
0.99262089 -0.2844584 -0.090338543 0 5 0
0.99437785 -0.28496188 -0.054210711 0 6 0
1.0001624 -0.28661957 -0.018160587 0 7 0
0.99594611 -0.2854113 0.018084029 0 8 0
1.0018128 -0.28709254 0.054616041 0 9 0
1.501194 -0.43020174 0.13662384 0 10 0
1.4909573 -0.42726815 0.19043504 0 11 0
1.5041294 -0.43104291 0.24781956 0 12 0
1.4975147 -0.42914736 0.30280375 0 13 0
1.5060153 -0.43158334 0.36168569 0 14 0
1.4969587 -0.42898798 0.41725364 0 15 0
1.0001166 -0.27117899 -0.27765638 0 0 0
0.9907946 -0.26865137 -0.23700218 0 1 0
1.0024154 -0.27180231 -0.20188527 0 2 0
0.99055129 -0.26858538 -0.16255267 0 3 0
1.0027267 -0.27188671 -0.12756482 0 4 0
0.99311519 -0.26928055 -0.090023525 0 5 0
0.99726605 -0.27040607 -0.054151613 0 6 0
1.0099237 -0.27383816 -0.018264789 0 7 0
0.99849373 -0.27073896 0.018058075 0 8 0
1.0011603 -0.27146196 0.054363068 0 9 0
1.5146513 -0.41069371 0.13729952 0 10 0
1.5152123 -0.41084585 0.1927622 0 11 0
1.4978347 -0.40613395 0.2457995 0 12 0
1.5103071 -0.4095158 0.30417401 0 13 0
1.5013847 -0.40709651 0.35913745 0 14 0
1.5017791 -0.40720344 0.41692993 0 15 0
1.0016978 -0.25627536 -0.27704862 0 0 0
0.99823999 -0.25539067 -0.23788434 0 1 0
0.99425256 -0.25437054 -0.19948755 0 2 0
1.0035338 -0.25674507 -0.16406327 0 3 0
0.99318272 -0.25409684 -0.12587507 0 4 0
1.0038662 -0.2568301 -0.090655558 0 5 0
0.99790704 -0.25530553 -0.053982463 0 6 0
0.9918865 -0.25376523 -0.017871059 0 7 0
1.0065098 -0.25750643 0.018134529 0 8 0
1.0033271 -0.2566922 0.054275665 0 9 0
1.4973722 -0.38308915 0.13522232 0 10 0
1.5018771 -0.38424167 0.19034652 0 11 0
1.5107989 -0.38652426 0.24699378 0 12 0
1.5032102 -0.38458276 0.30160517 0 13 0
1.4881705 -0.38073498 0.35463664 0 14 0
1.4998937 -0.38373426 0.41483912 0 15 0
1.0050092 -0.24185172 -0.27697864 0 0 0
1.0010487 -0.24089864 -0.23770763 0 1 0
0.99926019 -0.24046825 -0.19978124 0 2 0
0.98409718 -0.23681933 -0.16031507 0 3 0
1.0061573 -0.24212798 -0.12706719 0 4 0
0.99118024 -0.23852383 -0.089192487 0 5 0
0.98735493 -0.23760328 -0.053222209 0 6 0
1.0141671 -0.24405552 -0.018207688 0 7 0
0.99181229 -0.23867592 0.017806346 0 8 0
0.99601853 -0.23968816 0.053689212 0 9 0
1.4864291 -0.35770363 0.13375801 0 10 0
1.4858757 -0.35757044 0.18765065 0 11 0
1.5069567 -0.36264351 0.24549186 0 12 0
1.507026 -0.36266017 0.30129841 0 13 0
1.4936628 -0.35944441 0.3546831 0 14 0
1.5054531 -0.36228168 0.41490006 0 15 0
1.0054368 -0.22678217 -0.27617359 0 0 0
0.99065232 -0.22344746 -0.23445544 0 1 0
1.0063545 -0.22698918 -0.20052947 0 2 0
1.0040145 -0.22646138 -0.16301496 0 3 0
1.001299 -0.2258489 -0.12603249 0 4 0
0.99465662 -0.22435066 -0.08920721 0 5 0
0.99718577 -0.22492114 -0.053573105 0 6 0
1.0025967 -0.22614162 -0.017940013 0 7 0
1.0127654 -0.2284352 0.018121965 0 8 0
0.99197477 -0.22374576 0.053293146 0 9 0
1.4998215 -0.33829358 0.13451365 0 10 0
1.5017672 -0.33873245 0.18902592 0 11 0
1.4951339 -0.33723626 0.24275465 0 12 0
1.4853975 -0.33504015 0.29598513 0 13 0
1.5010298 -0.33856612 0.35524532 0 14 0
1.493803 -0.33693609 0.41031817 0 15 0
0.99329054 -0.20914987 -0.27198711 0 0 0
1.0003942 -0.21064563 -0.23602328 0 1 0
0.99469221 -0.20944501 -0.19758801 0 2 0
1.0029382 -0.2111813 -0.16233279 0 3 0
0.99445152 -0.20939434 -0.12478057 0 4 0
0.98693156 -0.20781091 -0.088238567 0 5 0
0.98365569 -0.20712113 -0.052681539 0 6 0
0.99567634 -0.20965223 -0.017760666 0 7 0
0.99757481 -0.21005197 0.017794531 0 8 0
1.0042956 -0.21146713 0.053786952 0 9 0
1.5018978 -0.31624356 0.13428015 0 10 0
1.5082484 -0.31758076 0.18925016 0 11 0
1.4989334 -0.31561938 0.24261321 0 12 0
1.5107027 -0.31809753 0.30008954 0 13 0
1.5043434 -0.31675851 0.35492018 0 14 0
1.5038851 -0.31666204 0.41180035 0 15 0
1.0017129 -0.19599462 -0.27349716 0 0 0
0.99944204 -0.19555031 -0.23511419 0 1 0
0.99397951 -0.19448152 -0.19687331 0 2 0
0.98514873 -0.19275369 -0.15899061 0 3 0
0.99717587 -0.19510691 -0.12475922 0 4 0
1.0019799 -0.19604686 -0.089323953 0 5 0
0.99870759 -0.1954066 -0.053332414 0 6 0
0.98953831 -0.19361255 -0.017599942 0 7 0
1.0003763 -0.19573312 0.017792707 0 8 0
1.0089648 -0.19741353 0.053880166 0 9 0
1.4997053 -0.29343155 0.1336949 0 10 0
1.5010842 -0.29370135 0.18780448 0 11 0
1.5009081 -0.2936669 0.24222767 0 12 0
1.4884229 -0.29122403 0.29480559 0 13 0
1.5005937 -0.29360536 0.35300782 0 14 0
1.489421 -0.29141933 0.40665585 0 15 0
1.0151347 -0.18357652 -0.276416 0 0 0
0.99929154 -0.18071145 -0.23444629 0 1 0
1.0054492 -0.181825 -0.19860925 0 2 0
1.0022594 -0.18124816 -0.16131684 0 3 0
1.0066049 -0.182034 -0.12560007 0 4 0
1.0085026 -0.18237716 -0.089663535 0 5 0
0.99650842 -0.18020815 -0.053071797 0 6 0
1.0040358 -0.1815694 -0.017809747 0 7 0
1.0039805 -0.1815594 0.017808765 0 8 0
1.0011419 -0.18104608 0.053318568 0 9 0
1.4993018 -0.27113307 0.13329931 0 10 0
1.5001395 -0.27128458 0.18718131 0 11 0
1.4986337 -0.27101228 0.24120988 0 12 0
1.5033301 -0.27186158 0.29695708 0 13 0
1.4840041 -0.26836666 0.3481659 0 14 0
1.51104 -0.27325583 0.41144845 0 15 0
1.0078739 -0.167404 -0.27375841 0 0 0
0.99967498 -0.16604219 -0.2339547 0 1 0
1.0061551 -0.1671185 -0.19825585 0 2 0
1.001983 -0.16642554 -0.16087246 0 3 0
1.0048276 -0.16689803 -0.12506741 0 4 0
1.0165707 -0.1688485 -0.090156741 0 5 0
0.99753982 -0.16568755 -0.052994993 0 6 0
0.99709463 -0.16561361 -0.017642768 0 7 0
0.99964458 -0.16603714 0.017687887 0 8 0
0.9916057 -0.16470191 0.05267974 0 9 0
1.4918902 -0.24779727 0.13231148 0 10 0
1.4959027 -0.24846371 0.18618983 0 11 0
1.4976865 -0.24876 0.24045968 0 12 0
1.5043843 -0.24987246 0.29642844 0 13 0
1.4944865 -0.24822849 0.34975579 0 14 0
1.4980367 -0.24881817 0.40689629 0 15 0
0.99728316 -0.15101133 -0.27026698 0 0 0
1.009505 -0.15286201 -0.23571904 0 1 0
0.99609619 -0.1508316 -0.19582838 0 2 0
1.0037889 -0.15199646 -0.16079666 0 3 0
1.0081812 -0.15266155 -0.12520003 0 4 0
0.99974847 -0.15138464 -0.088463597 0 5 0
1.0056664 -0.15228073 -0.053305466 0 6 0
0.99847376 -0.15119162 -0.017627073 0 7 0
0.99430507 -0.15056038 0.017553478 0 8 0
1.019514 -0.15437758 0.05403946 0 9 0
1.4950794 -0.22638899 0.13229337 0 10 0
1.4894831 -0.22554158 0.18497005 0 11 0
1.4840776 -0.22472307 0.23773393 0 12 0
1.4916718 -0.22587301 0.29325646 0 13 0
1.501992 -0.22743572 0.35071453 0 14 0
1.5192111 -0.23004307 0.41171113 0 15 0
0.99673325 -0.1363658 -0.26956138 0 0 0
0.99908489 -0.13668753 -0.23280525 0 1 0
1.0032873 -0.13726248 -0.1968357 0 2 0
0.99510205 -0.13614263 -0.15907663 0 3 0
0.99573445 -0.13622916 -0.12339955 0 4 0
0.9938252 -0.13596794 -0.087758273 0 5 0
0.99622899 -0.13629681 -0.052696433 0 6 0
1.0035647 -0.13730043 -0.017680444 0 7 0
1.0123959 -0.13850865 0.017836027 0 8 0
1.0091109 -0.13805923 0.053377837 0 9 0
1.4900953 -0.20386401 0.13158067 0 10 0
1.490008 -0.20385207 0.18465397 0 11 0
1.4901054 -0.20386539 0.2382077 0 12 0
1.5050862 -0.20591496 0.295284 0 13 0
1.5020897 -0.205505 0.35001466 0 14 0
1.4950836 -0.20454648 0.40433764 0 15 0
1.0126402 -0.12380525 -0.27335608 0 0 0
1.0104715 -0.1235401 -0.23502241 0 1 0
1.0043621 -0.12279317 -0.19668159 0 2 0
0.99426353 -0.12155852 -0.15864819 0 3 0
1.0065274 -0.12305789 -0.12450606 0 4 0
1.0166247 -0.12429238 -0.089605272 0 5 0
1.0051192 -0.12288573 -0.053068213 0 6 0
1.0113671 -0.1236496 -0.017784901 0 7 0
0.99827236 -0.12204864 0.01755463 0 8 0
1.0042392 -0.12277814 0.053021751 0 9 0
1.5029433 -0.18374963 0.13246937 0 10 0
1.5084503 -0.18442293 0.18659323 0 11 0
1.4965098 -0.18296307 0.23878838 0 12 0
1.4984798 -0.18320394 0.29344338 0 13 0
1.5145278 -0.18516596 0.35225931 0 14 0
1.4892037 -0.18206984 0.4020015 0 15 0
0.99871254 -0.10761909 -0.269153 0 0 0
1.0034167 -0.108126 -0.23299772 0 1 0
1.005524 -0.10835308 -0.19658527 0 2 0
1.0062988 -0.10843656 -0.1603045 0 3 0
0.99887168 -0.10763624 -0.12335584 0 4 0
1.0037276 -0.1081595 -0.088323019 0 5 0
0.99897105 -0.10764694 -0.052656859 0 6 0
0.99500519 -0.1072196 -0.017468398 0 7 0
0.99351478 -0.10705899 0.017442234 0 8 0
0.99069989 -0.10675567 0.052220877 0 9 0
1.5090294 -0.16260973 0.13278706 0 10 0
1.5022633 -0.16188063 0.18552229 0 11 0
1.4893914 -0.16049358 0.23726171 0 12 0
1.4948077 -0.16107723 0.29224283 0 13 0
1.5091523 -0.16262297 0.35043174 0 14 0
1.4989028 -0.16151851 0.40395427 0 15 0
0.99352837 -0.092696652 -0.26737091 0 0 0
0.99758351 -0.093075 -0.23131019 0 1 0
0.99726999 -0.093045749 -0.19469124 0 2 0
0.99570084 -0.092899345 -0.1583882 0 3 0
0.98868221 -0.092244506 -0.12192196 0 4 0
1.0076464 -0.09401387 -0.088540383 0 5 0
1.0004871 -0.09334591 -0.05266095 0 6 0
0.987643 -0.092147544 -0.017314218 0 7 0
0.99506462 -0.092839986 0.017444326 0 8 0
0.99756497 -0.093073271 0.052507143 0 9 0
1.4949582 -0.13948029 0.13135974 0 10 0
1.5025769 -0.14019112 0.18529424 0 11 0
1.4972192 -0.13969123 0.23816575 0 12 0
1.4957073 -0.13955016 0.29199827 0 13 0
1.4982387 -0.13978636 0.34739739 0 14 0
1.4972552 -0.1396946 0.40293008 0 15 0
1.0138158 -0.079971462 -0.27249452 0 0 0
0.99239695 -0.078281917 -0.22982423 0 1 0
1.0055954 -0.079323038 -0.19607484 0 2 0
1.00477 -0.079257928 -0.15963404 0 3 0
1.0069838 -0.079432547 -0.12402594 0 4 0
0.99613029 -0.078576408 -0.087420695 0 5 0
1.0061747 -0.079368725 -0.052895103 0 6 0
1.0025109 -0.079079717 -0.017553223 0 7 0
1.0002773 -0.078903534 0.017514115 0 8 0
0.99047434 -0.078130253 0.052069727 0 9 0
1.4928293 -0.11775685 0.13101116 0 10 0
1.5063938 -0.11882684 0.18553618 0 11 0
1.4977822 -0.11814754 0.23796193 0 12 0
1.4917184 -0.11766922 0.29086095 0 13 0
1.5010412 -0.11840462 0.34761861 0 14 0
1.49951 -0.11828383 0.40303996 0 15 0
0.9886713 -0.063764729 -0.26546365 0 0 0
1.0052243 -0.064832322 -0.23255613 0 1 0
0.99331421 -0.064064175 -0.19348159 0 2 0
1.0049137 -0.064812288 -0.15949313 0 3 0
1.0090326 -0.065077938 -0.12415085 0 4 0
1.0020837 -0.064629763 -0.087852985 0 5 0
0.98041975 -0.063232541 -0.051488299 0 6 0
1.008029 -0.065013207 -0.017631741 0 7 0
0.98729235 -0.063675791 0.01726903 0 8 0
0.98932183 -0.063806683 0.051955808 0 9 0
1.5042511 -0.097017244 0.13187815 0 10 0
1.5031916 -0.096948914 0.18495192 0 11 0
1.5094967 -0.097355559 0.23957716 0 12 0
1.4895755 -0.096070729 0.29014528 0 13 0
1.4920738 -0.096231863 0.34518754 0 14 0
1.4950498 -0.096423805 0.40142909 0 15 0
0.99689603 -0.049980015 -0.26745257 0 0 0
0.99102545 -0.049685691 -0.22908327 0 1 0
0.9891423 -0.049591277 -0.19251099 0 2 0
0.99745214 -0.050007895 -0.15817909 0 3 0
0.9953993 -0.049904972 -0.12237299 0 4 0
0.9976539 -0.050018013 -0.087392904 0 5 0
1.0042082 -0.050346617 -0.052694347 0 6 0
1.0072874 -0.050500993 -0.017604325 0 7 0
1.0031646 -0.050294299 0.017532272 0 8 0
0.99513233 -0.049891587 0.052218102 0 9 0
1.5047456 -0.075441375 0.13181333 0 10 0
1.5011344 -0.075260326 0.18454735 0 11 0
1.4985433 -0.075130418 0.23764369 0 12 0
1.5032533 -0.075366557 0.29256943 0 13 0
1.4966519 -0.075035587 0.34596276 0 14 0
1.5020548 -0.075306468 0.40297925 0 15 0
1.0101812 -0.036160938 -0.27085018 0 0 0
0.99447376 -0.035598665 -0.22973906 0 1 0
1.0059391 -0.036009084 -0.1956597 0 2 0
0.98687351 -0.035326604 -0.15640529 0 3 0
1.0096939 -0.036143493 -0.12405404 0 4 0
1.00044 -0.035812233 -0.087583087 0 5 0
0.99562633 -0.035639923 -0.052211907 0 6 0
0.99412966 -0.03558635 -0.017363686 0 7 0
1.0081767 -0.036089182 0.017609034 0 8 0
1.0062921 -0.036021721 0.052771233 0 9 0
1.5015405 -0.053749874 0.13145171 0 10 0
1.5091275 -0.054021463 0.18541597 0 11 0
1.5097036 -0.054042082 0.23926635 0 12 0
1.4976623 -0.053611048 0.29130208 0 13 0
1.4959784 -0.053550765 0.3455945 0 14 0
1.5056422 -0.053896699 0.40369338 0 15 0
0.99679726 -0.021403253 -0.26715216 0 0 0
